# 3D point list with one line of data per point:
#   POINT3D_ID, X, Y, Z, R, G, B, ERROR, TRACK[] as (IMAGE_ID, POINT2D_IDX)
# Number of points: 275, mean track length: 8.8629842539365153
15017 -0.37121267813891523 3.1126552963128917 20.261899166968373 142 105 62 1.7229777418671157 15 1437 24 6450 30 8761 27 6959 33 8677 32 8906 29 7542
15018 -6.0700313870838087 3.9313242470893628 19.456107593139926 228 133 87 2.3323713055293047 17 6744 18 4165 21 7228 29 6883
15019 -10.583013973130999 4.7294422625314114 19.162728693395355 203 159 128 1.3840217493531135 15 3199 18 4167 19 2637 27 2590 28 2873
15020 -5.4084048570933589 4.1689216535763851 19.868290847042253 180 156 152 1.8839316992204402 10 1722 18 4169 19 3912 21 7200 25 1314 33 6989 27 3003 30 6848
15021 -3.0622704736112518 1.3571432586697372 7.5194981150621443 132 88 63 0.59895767359973684 12 3879 18 4172
15022 -10.933707636111997 5.0786221462792493 18.547493593296963 133 149 164 1.4847408767552428 9 799 18 4178 21 1737 24 5212
15023 0.48909814895177134 3.1512129989524751 14.328328677107201 184 152 133 1.1532128126319041 12 2860 18 4212 19 3852 21 4045 25 6294 24 5275 22 6639 23 6624 33 8572 27 8089 32 8775 31 8693 28 8354 29 7428
15025 -3.1053681950954597 -5.119673376730141 17.091010829291768 68 46 33 1.8862205852590943 9 7591 18 4251 15 6441 13 8154 14 9325 17 8128 32 2597 26 2743 28 2444 4 2576
15031 0.39874094478355881 -1.4597345253083429 14.056228274260151 97 69 45 1.621829809432858 12 2338 25 4776 23 5110 32 5966 29 4518
15033 -2.9090836999599876 -3.0079930679195321 17.370326450658101 166 123 95 1.3189076140502618 10 5533 14 9144 13 7722 17 7700 19 7625 21 8675 25 5621 25 8649 24 7268 23 8283 33 5856 30 5695 26 7251 31 7372 29 9900 2 2283 7 4816 7 4818 5 4666 5 4668 8 4745 4 3301
15035 -5.759811939708773 -3.001310987978981 17.579480278587067 147 91 61 1.3712874117094527 3 5185 19 6445 18 5696
15036 -8.4938989590493694 -4.1893353671199431 17.126904398794693 31 21 9 1.7544736407919628 13 6461 14 6448 18 4302 13 7119
15039 -4.5615404909844974 -6.2299292955121768 16.783262723996128 79 33 12 1.9311444024091151 9 5119 10 7451 18 4328 16 5921 17 6136 33 9392 26 9106 31 9411 28 10183 29 10048 4 3051
15041 -4.6071384572033853 -5.6077611917179651 17.070638694722021 158 77 60 0.17344099321163239 9 7867 18 4345 21 7747
15042 -3.2950399511484147 -4.8635997981865318 16.562993731411655 111 74 56 1.6052551733554967 11 7876 14 6325 17 6401 18 4352 13 6351 19 7387 21 4298 9 5249 25 5410 24 7664 33 9439 26 6647 31 9457 2 3918 7 4532 5 4424 8 4024 4 3085
15043 -4.8675839994086942 -4.8034618254654449 16.863992546675359 184 103 22 0.87961225634450102 14 6342 15 6475 17 6419 18 4355 10 8544 11 6271 13 6368 21 5582 8 4026 4 4018
15045 -9.8920568154363409 -3.8798496899284096 16.844271228854687 128 99 65 1.1384729137580627 9 5526 18 4370 24 5695 19 8070 25 8488 18 5245 22 7242 23 5718 20 4588 12 3044
15046 -12.28163981272303 -3.5557060661138893 16.095519154304899 135 97 62 2.1081479791080056 13 4021 15 4118 18 4374 24 2336 21 3399 22 4190 22 5547 30 9380
15047 -5.7924471679404972 -3.4991828027447465 16.284068855801596 110 60 35 1.0739616949381949 9 7918 21 5656 14 2549 15 2712 17 2740 10 2795 13 1505
15048 -8.617171924759317 -3.0845501779823503 16.523211049593328 204 163 117 1.8535335058131563 14 8177 17 5726 18 4388 10 7565 16 7681 11 3319 13 9324 21 4992 22 8065
15052 -8.5973534491714894 -2.4707408840568306 16.624160770333969 109 70 42 0.77816653589108353 13 4109 14 4120 16 4054 18 4395 19 3535 26 5450
15053 -6.3982577201271758 -2.5270812241590748 17.834201813497348 161 128 91 1.6406993489457515 9 2354 18 4397 19 6356 21 5326 24 7730 33 7524 30 7285
15054 -4.5934843266375394 -2.3034874017262474 17.878201359691136 142 99 65 1.281843900507267 3 3876 14 5657 15 3214 16 5489 17 3302 19 2352 18 4405 21 7913 25 4697 24 7172 22 2612 23 3482 33 5928 27 4385 30 4991 26 6699 32 10253 31 9522 28 9116 29 6057 20 3923 2 2808 5 2898 8 2907 4 2734
15055 -11.1328667416463 -0.45696048717121934 17.163613474566358 122 77 41 0.47060771825145881 15 3451 18 4419 25 8049
15056 -4.5540097406883788 -0.64202117111858292 18.26921376879752 156 138 129 1.2211885092797146 9 5642 13 8380 14 8322 18 4424 11 8052 17 8334 19 5142 21 4583 25 4890 3 2950 24 4874 22 6278 23 7161 33 7789 27 9209 30 7553 26 7486 32 9637 31 9583 28 9164 29 8285 20 4076 2 4006
15058 -4.2680936221073695 -0.13418337699172597 17.988803745052813 64 37 19 0.19794157100233817 10 5764 18 4436
15059 -8.6558081471624764 0.67147433884352259 17.803364557887267 92 57 38 2.1404035537015771 9 7349 18 4444 21 5359 33 2914
15060 -2.0525271724316334 0.052113543327735663 18.63083443390158 158 106 67 1.7530684253244462 6 6447 14 8366 17 7223 18 4445 25 8101 26 9317 28 5825 32 6098 4 5030
15061 -4.8775989317730382 1.603330315873827 22.279273962132034 63 45 34 0.94036266122535583 18 4454 2 2585 8 3067 4 4117
15062 -3.9602412835464671 0.79319566476524872 9.469872918130223 170 92 61 1.374008305491152 3 1709 18 4455 21 5764
15063 -5.2239467169395173 1.7225048076984366 18.759696378458305 75 66 59 0.94324923385362858 13 6906 18 4460 16 6541
15064 -2.3097445382333737 1.5779084558660981 19.578726194722584 40 21 6 1.8141180142835378 6 5006 9 5762 16 2494 18 4462 19 3429 21 4408 25 3246 22 7434 33 9651 27 9299 28 3737 8 4114
15065 -1.8615709407730845 -1.3030335553896075 18.277663150561125 191 127 82 1.1377412451737656 12 2699 18 4500 22 7325 15 8474 23 7424 31 9572
15066 -2.2266900562134051 1.4127143091624179 19.26767598911087 100 74 54 0.2279270999668859 14 3095 17 3363 18 4502
15067 -12.970063493841375 4.4111475278434451 17.851487053867618 74 100 102 1.8969523165605033 9 2093 18 4512 32 7963 33 8918
15068 -4.2074180180367113 0.87526926317196119 9.210458454221591 147 157 148 1.8515292635556639 3 2008 18 4522 19 7731
15069 -4.4455700865078249 0.81955826194581283 9.5354894488183675 115 132 122 2.4708420057273877 3 3098 18 4531
15070 -5.0096225949344477 1.2479249172852247 17.880329509262481 34 25 16 2.1910540153731755 12 2760 15 9437 16 6516 18 4537 14 6750 9 7198 6 6400 30 6176 32 7792 32 6150 20 2729 29 6286
15071 -5.4406747959407706 1.2984175052815912 18.292564725823826 110 84 71 1.9107578737946216 13 6810 18 4540 4 6264
15072 -14.344065872996175 2.5777188998144771 17.845959001748746 90 82 97 0.78014105719028226 9 1487 25 1034
15073 -6.5982137199958588 1.4681789680299093 18.9678835454664 86 39 18 1.3285278802055613 9 7183 13 2336 18 4546 11 2748 14 6774 16 2804 17 2393 19 4120 30 7782 21 3773
15074 -6.3809304987931768 1.2878355856187249 18.505490788967013 103 54 43 1.9939694869268494 14 31 17 4555 18 4551 17 36 26 5824
15076 -13.827937164123808 2.1227637006988846 17.425433614899166 133 116 132 1.973584554753812 9 3989 18 4555 21 7602 25 4712 3 3522
15078 0.69478148886568414 -0.076671915129780333 19.091381180708353 111 82 64 1.9429570797451194 9 5724 18 4571 11 6969
15079 -9.944339738669866 -6.1691544852437703 15.862597770157031 136 92 51 0.68530607745359051 15 6182 17 9086 9 6916 11 5990 14 9114 24 8668 1 3930
15080 -15.187470200199373 1.579824985498437 17.63763260417695 153 126 105 0.19216097933567011 9 1823 18 4574
15081 -1.3786728087813696 -0.024541057113607621 19.233340161227989 99 60 29 1.34775222332712 9 5713 18 4578 30 9555
15082 -8.3796938681647557 0.70884129734327728 17.840698095077514 83 57 34 1.9658107838967869 9 8484 19 1050 21 728 21 7685 25 4997 26 4451 18 4585 32 7617 31 7707 1 977 24 6861 29 3297
15083 -7.7254066092130476 0.46278533013420015 18.491493040678499 24 10 4 0.35035291121104417 14 9156 18 4590
15084 -5.3427326374081945 -6.2169199047498207 16.270416693019062 36 20 4 1.6323771691085291 9 2814 10 6374 15 3963 17 3859 18 4594 14 3896 19 4229 25 7125 24 4497 22 4718 23 4961 32 4466
15091 -5.0295473346942901 -0.52134483749910043 18.466369579650486 86 75 69 0.90672202450522832 17 4421 18 4642 13 4492 7 4370 4 5023
15092 -8.3791240677195269 -0.30596674747723346 17.287425391874987 77 62 49 2.1712621446288316 9 8166 18 4652 25 8917 23 7192 20 1612
15094 -11.522348351153047 0.0093616542814769204 16.842462154853958 83 65 54 2.3192235429325483 15 7492 18 4656 32 7447
15096 -6.7562166820894696 -0.53998574816449596 18.743755837376092 96 58 39 1.1496206445508554 14 440 18 4667 33 4667 19 2409 21 2972 27 4476 30 4669 26 4402 32 4732 31 4732 28 4489 29 4503
15097 -0.5553195873380905 -1.1898955692564599 18.967221940844336 38 19 3 1.5091681654469837 10 1644 18 4668 6 880 9 1421 23 3570 27 5457 33 5886 30 6064 26 3660
15100 -10.895873681533795 -0.38309983537772518 17.362452268597838 78 64 50 1.4893729332857024 9 5619 18 4684 21 6362
15101 -3.1238983378840515 -0.48075683011243037 9.4974050112037709 65 33 12 0.43527423544982935 12 4210 18 4689
15103 -0.8040927919483235 -1.5343869769881473 18.655887260464798 55 39 29 1.0430581367821468 13 7400 14 7350 18 4706 15 5472 21 6323
15104 -4.9534798529616531 -1.3725962490593471 18.19983520052406 87 72 59 1.6151290378888399 13 9224 18 4720 19 8013 23 6360 16 7240 5 2961 2 822 7 3038 8 4241 7 5392 4 3268
15105 -4.6010173821037492 -1.4138430925483165 17.663394369786527 60 46 33 0.96277366174138646 14 4410 17 2678 18 4731
15106 -5.7564158841316155 -1.2846090832422699 17.037679915145127 213 159 130 1.0137009445179714 9 8271 18 4732 26 5591 2 1356
15107 -7.9242191594350997 -1.2358746673335868 17.009850045714003 192 132 85 1.7288808238507007 9 8292 18 4736 32 7398 29 9520 26 7341 26 7352
15108 0.76365389528465699 -2.0138167778220901 18.747646038002447 77 47 28 1.9171480279561639 10 5665 18 4740 19 680 25 512 24 965 22 787 27 1872
15109 -11.059410366539952 5.1292278714894994 18.325609036253041 78 110 127 1.1056455714613602 9 2590 18 4741 19 259 24 5219
15111 -10.948797024639301 -1.0493220925878934 16.845792682959967 88 60 36 1.8243409983997758 9 8309 13 7467 17 4319 18 4749 11 5928 9 5004 25 4754 6 3939 22 6133 23 6314 31 7452
15112 -11.084008309267476 -1.1653203056050927 16.990448530618274 88 60 36 1.3017828795609803 9 8321 18 4762 11 7193 19 5063 21 4874
15114 -7.5079413909643637 -1.5074013573132004 17.359775352731553 46 27 16 0.65365603904796854 15 821 16 512 18 4766 25 2848
15115 -9.1446149288241525 -1.3959013241491536 17.002235994963868 135 101 66 1.3222154819800522 9 4893 18 4773 19 6258 21 4614
15116 -10.008251198034166 -1.386436066928622 17.102178285105023 77 55 34 2.6037048783035042 13 8333 18 4774 32 3139 28 3004 31 3095
15118 -3.3814111748721145 -2.4088920946125616 18.285240714731817 78 59 45 1.0417676405756653 11 7992 14 5992 15 8409 16 8168 17 5764 18 4810 19 6309 21 4519 30 7344 7 4200 5 3833 8 2471 4 2714
15120 -4.0014759955054702 -2.5677836604857944 18.227689164444623 179 152 116 1.2151921356792692 10 3809 11 9068 13 7636 14 1145 17 1287 18 4834 11 1052 22 5030 23 6260 31 2772 2 4376 7 3944 5 3824 8 3862 4 3355
15121 -13.249560620397 -2.0384161599704216 16.848897001483721 77 56 39 1.3940097945331742 11 7373 18 4851 9 6063
15123 -7.7499629011017594 -2.376230690109344 16.619487510030421 47 27 13 1.3293740662845077 6 5422 18 4862 30 5605 32 4658 28 4409
15124 -11.391026901854373 -2.1679138621131693 16.340175050286607 169 128 92 1.9419852743403982 16 9219 18 4868 14 7664 17 6030 21 8732
15125 -6.7946589397038055 -2.4951763801841826 16.442173987355773 115 93 71 0.79576783653475525 13 5897 18 4872 11 5819 14 3342 15 4204 17 4086
15128 -0.88557867870899143 -3.2705080329585958 18.216989340140479 131 114 94 0.88526540772897 16 5802 18 4889 8 4695
15129 -1.2316494430125482 -3.2287560094029941 18.113960618413014 197 157 123 1.063138552765343 13 8255 16 8122 18 4891
15131 -9.9462719121021053 -1.9920163916514 13.726684777912785 68 35 11 1.7686065121474503 12 3440 18 4894
15132 -5.9065555111219901 -2.9050431554468981 17.263774324337579 189 135 111 1.0054003491850745 14 134 18 4907 10 1581 13 7751 15 1475 11 1803 6 2833 16 1561 6 2412 9 1726 11 1742 15 1818 19 2315 21 2688 23 3440 33 3456 27 3260 30 4566 26 4318 32 4649 31 4649 28 4402 29 4584 1 2284
15133 -6.4334493079605668 -3.2272279494318634 17.910874257009027 94 67 38 0.90850253058841401 11 1115 15 1072 16 1107 17 951 18 4922 10 1572 13 8234 14 1115 21 5184
15134 -7.6812599097383032 -3.1389435341831562 17.689759657196728 176 149 127 1.487390831527013 14 7783 18 4923
15136 -11.7208688139274 -2.7557727302119104 16.515032629590578 184 139 97 2.0283973007987357 9 6429 13 5862 15 6770 16 7627 18 4930 19 4962 25 5588 11 5772 17 4046 16 5777 13 3457 15 5207 16 7637 17 7785 11 7483 9 6420 20 416
15137 -11.288988628068443 -2.575020991393167 15.529146022124424 84 52 28 0.65450702394551175 9 8640 18 4932
15138 -4.8893071434592894 -3.270525998021919 17.422751602007178 121 85 59 1.8380901750406018 3 4018 10 7107 11 9040 25 8584 24 7299 25 5591 22 8083 23 8246 23 8251 33 7443 26 10337 31 7320 2 2284 7 2255 4 2198
15140 -12.452098425510661 -1.4322025330460835 9.7499487864753256 224 198 163 0.41929794119306063 12 2551 18 4946
15141 -6.2700598174238307 -3.2856833471557279 17.106273818203142 114 80 52 2.0272217974471913 14 6617 18 4953 16 8807 21 8595
15142 -8.775023549786015 -3.1434337295856922 16.52052494846567 153 110 69 1.2078954361401204 15 6720 16 6462 18 4959 13 6629 10 7125
15145 -5.276057370169009 -3.7948193268270716 18.047367615219276 195 173 151 1.9241962039037912 16 5726 17 6623 18 4985 10 5086 6 3808 25 8534 23 8216 33 7396 27 7392 32 5064 4 3272 5 3164
15147 -5.095092102777615 -3.7616473597630531 17.145608280868768 74 54 36 2.103402847788796 9 8637 10 6257 11 6446 14 6537 15 5965 16 6395 18 5002 6 3797 25 6923 25 3517 22 8022 23 8186 33 5770 27 6260 20 3214 2 1263 7 2894 7 2895 5 2820 5 3269 4 2062
15149 3.1707375708458727 -4.1061609272649973 16.978334693694077 216 209 193 1.6600032249922423 3 4118 12 4706 18 5012 21 8469
15150 -7.1397487666609152 -3.6602089276157006 16.326228859327717 120 93 69 1.1150288813800946 17 6584 18 5022 13 6550
15153 -10.260537757474365 -3.9134826155614402 16.53554269523206 170 129 78 1.2809593240890844 9 7493 15 6578 17 6526 18 5044
15154 -2.7871565689955178 -4.4319278824461943 17.447914957997678 39 36 27 0.67374262467646129 11 5239 13 4009 14 4035 18 5051 30 7113 2 3133 7 2856 5 2782 4 2613
15158 -8.1845590650648212 -4.1080089745343287 16.264655387573697 92 65 27 1.5734659012196501 11 6347 13 6446 15 5805 16 6275 18 5061 9 5489 17 9219 19 8112 21 8350 23 4854 14 6436 21 8383 27 7298 32 7107 29 8722
15159 -5.6136471408155177 -4.2599697082515684 16.600870784955916 191 148 113 0.48842579441478967 9 8209 10 6183 11 6355 18 5066 15 6557 16 6283 21 8348 32 7119
15161 -4.2211506823825147 -4.4345687118188764 16.746590493056885 131 100 80 0.62444039409437968 9 5307 18 5077 7 2529
15163 -7.0976344620590961 -4.2758517059849082 16.282620460360189 128 94 57 0.79264018767193845 9 5303 10 6148 11 7891 13 5583 14 8651 15 5445 16 5422 18 5082 13 6428 21 5637 6 5853
15165 -9.048158389106451 -4.1536797863656041 15.780048870588224 120 77 30 1.6202643341391159 11 5502 14 9317 16 8031 18 5091 9 8670 17 5701 17 6463 19 7708 21 8309
15167 -4.3252571180873325 -4.6734980349386195 17.039294679507076 147 113 92 1.9587358682468987 9 1659 18 5097 15 3538 13 6400 14 5312 19 2251 19 8148 21 8266 22 3214 31 7177
15170 -3.8415944626118681 -4.7827774889123287 17.181475978124919 167 130 112 1.5567769400511284 9 8279 13 6386 18 5113 14 6358 17 6435 7 3354 8 4514 4 4435
15171 -7.071104996721731 -4.5060415716404885 15.920551961857052 191 164 133 1.9732628603941391 11 5184 18 5132 10 6094 13 5253 14 5285 15 6478 16 5612 11 6273 19 8189 21 7664 25 5419 6 5601 25 5427 22 4897 22 7925
15172 -6.9886832358065138 -5.0915424206217628 17.42582202517508 176 134 84 1.3611387931655103 11 1405 13 1717 16 1482 18 5139 10 1526 14 967 15 1103 17 1075 10 790 13 460 21 7435 10 6073 17 6380 25 8404
15173 -9.5722523718227599 -4.7455085440409155 16.272297236677968 133 91 47 1.4314896547226617 13 6336 18 5140
15175 -4.0433172449690673 -5.5521968365649919 18.056513591065038 124 62 40 1.2053330146187837 11 6221 18 5155 14 4717 15 6407 16 5575 17 5334 13 6310 2 3478 21 4732 8 5771
15176 -3.1368530916983448 -5.1478052254115152 16.801157249023802 73 47 31 1.7735835610185957 15 6411 18 5159 16 5410 10 6053 9 8734 19 7713 30 10637 31 9448 32 9517 5 4014 8 3907 4 4384
15178 -1.1896700140696239 -5.4839826491917734 17.505429015352444 112 88 65 1.2494338545884209 9 7628 18 5172 21 7756 25 8384 2 5012 8 5764
15180 -9.1867972001480229 -4.6857915647614554 15.110524498772206 114 70 24 1.769400858514109 9 7634 18 5175 13 6295 16 4695 11 5157 13 5225 14 5259 17 5333 19 4823
15181 -4.1932664447413481 -5.8835942018099407 16.178598252145513 167 124 97 1.0590584518368353 9 8610 18 5197 21 6801
15182 -12.529785857952822 -5.4164929196756129 14.623467618696932 175 133 89 1.3459445577330547 3 3234 18 5198 30 1322 12 4033
15185 -4.08246452725602 -5.6910984116525869 16.919739261839304 70 38 17 1.6655483029120919 9 5500 18 5214 15 8256 13 8136 21 7740 7 5841 5 5755 4 2965 4 3273 10 5997
15188 -4.2081094682903606 -4.4982907794597979 16.321928636971073 146 117 99 1.8277868121901668 16 6217 6 5586 19 8153 6 5580 25 3466 22 4824 23 4560 24 1845 33 5688 27 4263 30 4506 26 4238 26 10207 32 4578 12 1422 31 5185 28 4813 29 4653 1 3777
15190 -3.3797415237821449 -4.5006716283681349 16.988714596732652 114 96 84 1.2522558199946014 10 6149 18 5242 19 8129 30 9376 2 5555 7 4621 2 5565 5 4495 8 4536 4 4450
15191 -10.283657905059558 -3.626542423265851 16.162989605625224 194 152 102 0.69690204419581059 9 7906 18 5246 13 5597 15 5748
15192 -10.474321705762311 -3.2266616839378042 16.676478906365194 202 160 112 1.0254476320435693 9 5981 11 5519 13 5809 15 5986 16 5731 17 3086 18 5259 21 7840 21 8566
15193 -8.7561482264081807 -3.1391309003163679 16.506468035168965 153 110 69 1.3674818401233508 13 8225 15 8342 16 8094 18 5261 10 7563 9 7922
15196 -5.4472618861472402 -2.1106570348727116 17.252104414028931 186 158 134 0.088397843904669759 9 7966 18 5298
15197 -11.536836500748024 -1.4125000179671592 16.32180380278092 108 95 87 0.97868806834416877 11 8009 15 8421 18 5305 21 7929 31 3101
15199 -9.4844702447131066 -0.6874321630401522 17.889454553000924 154 110 75 1.6570142168661341 9 5605 18 5319 19 5091 21 7966 22 6210
15200 -6.6724806425497389 0.49084483457841682 17.928381230687926 126 87 56 0.12615916667380905 9 3942 18 5333 21 5357
15201 -1.3107520532096972 -0.018626220775390227 19.424998616451827 99 60 29 1.2690085293790094 9 5593 25 8104 30 9554 22 7360 26 9322 7 4349 5 4272 4 4110
15203 -2.7289816653544836 1.0530621956445247 8.5564511226683972 153 151 139 1.4479785875656508 12 2816 18 5353 19 6114 25 6702
15204 -10.456602190681322 5.4986615182838126 19.831827346037485 106 55 21 1.6393709294174745 9 8087 18 5368 12 2821 27 8203
15205 -15.336999986505402 -1.5656439798520156 15.052031852694034 185 185 185 1.7952381960845099 9 2359 18 5390 16 7455 21 5328
15208 3.7648762622598597 -4.8923896735396353 17.748796342060409 190 176 147 1.7864428726598818 17 3984 18 5404
15209 2.0234173884688773 -5.5796464190350825 17.035856316206168 112 81 49 1.5880530641492421 10 3647 17 8114 19 8234 26 10145
15211 -1.3852072268119806 3.2527129256128786 9.8277874866043078 18 78 102 0.95508788137914113 12 3413 18 5422
15212 3.5946881603970708 -5.4818676480179764 17.054251687602729 231 217 198 1.9304459859638037 15 4764 18 5452 21 4688 33 4465 17 5323
15213 -2.3465815796906559 1.16484366961776 7.9754205302219505 143 156 148 0.42858849865574267 12 4518 18 5535
15214 -8.8336977378387544 4.0868923155130448 18.693138629163045 130 118 102 2.5975607865852424 10 969 18 5536 11 4482 21 6066 19 5464 33 8820 30 8905 18 3010 6 2435 31 9013 28 8682
15215 -9.3349725416924159 4.0539606605965011 18.793741970800554 108 89 83 0.14118442213483762 11 318 18 5537
15216 -9.2974742797645256 3.8979001804274649 18.312885787834158 103 90 74 1.4374571632585618 9 2095 15 2857 18 5540 25 5761
15218 -1.4519301078041305 -5.534951787316098 17.001098072063236 158 135 110 1.1700192140929364 9 8617 16 6077 18 5568 19 8229 33 10642 27 10217 30 10600 32 10767 28 10244 29 8813 5 3174 8 4427
15219 -3.9865949714714897 -5.6368584714279688 17.023899726707736 65 42 22 1.3741904525833029 9 5203 18 5575 19 8231 7 4474 8 2729 8 4421 4 2559
15220 -6.2693836861067176 -5.5366214314929341 16.815646536420275 127 89 47 2.0156429609716668 9 7071 13 6265 18 5576 17 6268 16 6066 25 8194 24 7503 23 8061 27 10206 6 3704
15221 -3.4622963536123517 -5.5591330692973759 16.725161299291685 161 106 79 0.47804637455513405 9 5200 18 5581 19 7714 21 6933
15224 -6.8296021909113929 -6.2374421718921509 17.683863056408001 204 167 123 2.246888251834855 13 6196 18 5605 14 5175 19 4773 21 6899 25 5330 24 8090
15225 -6.1286271526663016 -5.3625077532117844 15.302053587958465 191 156 125 1.9424785178989592 13 3447 15 5322 17 5258 21 6867 25 7690 23 4742 27 10179 16 6017
15226 -2.6508735905507765 -5.8860955102561663 16.77477173442951 53 44 34 1.5400683619047673 10 1174 15 5317 18 5613 6 1077 21 4635 5 3617 8 3283 4 2522
15227 2.9070152168219083 -5.4867743373464117 15.650652374296632 171 142 107 0.14778838503631991 18 5631 25 7159
15232 -4.5112987554034705 -6.3568173319130725 17.319619057373384 167 124 97 1.9398796435456203 13 3900 18 5643 9 5132 11 3788 14 3916 16 3840 17 3878 7 2748 5 6413 8 2673 8 3240 15 5265 4 2506 4 3704 29 8878 33 10563
15233 -6.7058494496651182 -6.0037260478533172 16.157885355138369 196 154 115 0.97612133853710559 11 5081 16 5094 18 5659 6 5676 21 6797 25 7141
15234 1.1552395865396254 -6.5450537698537614 17.755511828205208 195 157 105 0.65579592780704021 17 6149 18 5660
15235 -4.6780468861933944 0.6364010826259533 10.358316680104592 87 70 53 1.4676484859949206 12 2261 18 5672
15237 -7.8237342719191467 -0.72398823159952697 18.691274724980193 106 91 83 2.0071218863952054 9 2437 21 6363 25 4849 24 4847 22 6243 24 7040
15238 -6.3484560847609552 -1.5013600597183334 17.407791388031196 115 79 53 1.2130256931611065 9 8312 18 5689 19 8162 17 16 21 6250 25 6936 9 2412 24 7120 22 6137
15239 -9.0333226990169067 -3.0400372212383364 16.769382241064449 166 118 71 1.9956185207757606 15 6738 18 5698
15240 -0.4681224215946217 -4.34846187540193 18.112128043491975 118 82 50 1.1360395350511534 12 2530 18 5703 22 8279 27 9094 3 3092
15244 -3.5783178045121544 -6.2289901198898221 16.944162569146705 66 43 27 2.1645340788305996 10 5901 16 9171 18 5714 19 7075 25 7146 24 5928 10 5923
15245 -4.2412010577452728 -5.5596373914173034 16.380543612721592 232 191 164 0.88187800084753287 11 7853 18 5716 9 7864 19 7382 21 7738
15247 3.885374498835112 -5.8295483371710235 17.099475422974074 209 188 147 1.4687846837282836 9 7057 16 6043 18 5723 19 6426 25 3414
15248 -4.2638467475281692 -5.8372339871995376 16.884769306638539 208 164 137 0.8763005748663899 9 7032 11 5482 18 5727 7 3460 5 3627 8 4006 4 6181
15250 -6.3297248220467814 -1.4911145074572298 17.343383620046922 115 79 53 1.3412002881293981 9 3012 18 5751 17 18 21 7944 24 5747 22 7302
15252 -13.283554710213211 -2.7192540961357041 15.54387442046631 157 129 99 1.7584607950875493 9 6797 13 6637 14 9274 15 6729 10 5513 3 5095 18 4300 19 4506 6 2428 21 8590 24 4671 22 3269 23 4910 27 7361
15253 -4.8718460996879429 0.24808429941912005 18.825565964242941 16 9 5 1.5371062279707481 6 1885 16 4656 18 886 10 2318 12 824 33 5938 7 5198 2 4120 20 3894 8 5085 4 4952
15254 -2.6202344729331037 1.5136830129859287 19.582249615455293 15 4 2 1.7386076804274027 11 1231 16 1224 14 1216 6 1916 10 988 3 1353 18 1744 9 7233 12 3456 11 6587 12 1294 19 7226 21 5503 24 6642 22 2662 22 6901 23 2409 32 7915
15256 -11.713051383976373 -5.9875017901879621 15.207559328380983 179 142 105 1.3402285041918902 9 2251 3 1468 12 1231 18 1587 9 1907 13 6058 17 9073 10 3583 3 1303 3 4330 12 1371 19 1864 19 2176 25 1635 25 2054 24 2264 24 2926 22 1715 22 2199 23 2689 33 5487 33 6609 27 6045 27 6619 13 6085 30 5779 30 6436 26 5147 26 6603 32 3783 32 4455 29 3644 29 4775 1 1135 1 1306
15257 -3.8515465068997905 -6.4376443118807405 17.325726415490056 171 136 106 2.0954034521652281 9 5130 16 5940 18 5408 13 5114 10 4193 15 6211 19 3038 25 5953 25 5957 23 4719 27 9026 27 9027 27 10126 24 7561 30 10501 26 9108 26 10058 32 10672 28 10185 29 8891 2 3055 7 6597 8 3227
15259 -9.5893459443174045 -3.4493619994157609 15.786128772798849 208 168 122 2.2467319109743293 6 4635 13 5779 14 4063 17 4009 9 5945 15 4131 18 5011 11 6425 14 6517 3 3979 12 3509 19 4910 19 8056 21 8471 21 8475 25 8497 25 8507 24 7392 23 8171 6 5515 27 7328 24 7384
15260 -12.391305399014556 0.058553536306619407 15.553261032283503 64 36 12 0.71870816518113101 9 2199 3 2629 12 2090 18 2333 6 2806 10 1647 19 2977 21 2548 25 2809
15261 -12.856305012498821 -1.8548184525955724 15.468019659100658 40 28 20 0.84976146062433555 3 2402 12 2375 18 2256 11 4000 13 2260 14 2391 16 4065 10 3806 19 4996 21 3493 23 4943 22 5128 33 7462 27 7447 30 7232 26 6436 29 8557
15262 -4.541197929296108 -0.64866650060206554 18.978678282437155 115 96 88 1.2844853173077704 9 8165 12 4195 13 8378 16 7120 17 8333 14 7285 18 4016 3 3887 9 7991 14 8319 17 7349 13 7319 12 4408 3 3459 19 5152 21 4539 21 5321 21 5739 25 4901 24 8135 25 6941 22 5414 23 7154 23 7437 33 7794 33 7807 33 9581 27 8711 27 8722 27 9216 30 7558 30 7572 30 9501 26 7499 26 9283 32 7548 32 9638 31 7641 31 7651 31 9587 28 7211 28 9168 28 10193 29 8268 29 9550 20 3333
15263 -1.9001277858874803 -3.51899892731547 17.827479510227761 54 39 27 1.4961136043256265 6 1017 16 783 11 964 13 780 17 779 14 794 9 1339 10 1106 3 1519 12 1458 18 1447 11 7505 13 6652 15 6747 17 5966 14 9016 16 7672 19 1168 21 1171 25 1492 25 9177 24 1451 22 1143 23 1758 33 1712 27 1797 30 1873 30 7220 26 1751 32 1511 32 5313 31 2295 28 1476 29 1736 20 2190 1 1368 2 884 7 886 5 850 8 883 4 844
15264 -0.85461354051446425 -6.7088229763153482 18.49212001725358 122 85 52 1.907112487160058 15 1708 17 1682 14 1590 10 1482 6 2582 32 2553 28 2412 29 4740 7 3396 5 3582 16 6909 8 2670 8 3242 4 3712
15265 -4.7375549056968076 1.611462991105364 18.752499315351919 116 94 70 1.7365465202925678 6 1918 16 4744 11 1499 13 1890 13 6886 17 2382 17 6748 14 3093 14 7002 15 1619 9 1498 12 1568 18 1515 11 1760 13 1462 14 3413 15 1594 17 2691 3 967 19 244 22 3578 33 4785 26 4519 30 7842 32 7855 31 7923 29 7985 5 2219 5 4802 7 4903 8 3751 4 4263 8 3075
15266 0.12102494722515682 -6.3369188891401693 17.873402229797144 53 38 31 1.6908926684273979 11 1561 9 1607 3 1307 12 1394 18 1563 6 3679 16 2204 11 2210 13 2420 17 2440 14 2240 15 2409 9 2854 10 2051 18 2092 21 2356 24 1812 24 4124 25 1568 19 1846 22 2354 23 2719 23 4748 33 2713 33 4413 27 3158 30 2796 26 2713 26 4151 32 2558 32 5012 31 2598 31 5896 28 2416 28 4681 29 2492 29 5834 20 2503 1 2721 7 2758 5 2687 8 2681 4 2515
15267 -10.063893878569649 -2.1949844733373953 16.205045557825311 73 47 33 2.2346917186664834 18 3879 6 3876 16 4058 17 6035 14 4124 15 2983 9 8455 15 7860 14 9040 10 6994 3 2768 12 4611 6 3882 13 7677 19 6414 21 5304 25 5646 24 4729 22 4985 27 7453 32 7263
15268 -10.903873819167417 -2.328862557073033 16.412466033562144 191 127 82 2.0993256232625934 3 4619 18 2235 6 1815 16 4051 3 4616 12 4635 19 2321 21 8696 25 3593 24 3936 25 5640 24 4713 22 3308 23 3437 1 2437
15269 -11.66900287465698 -1.8145222462997843 16.478386407819684 126 104 85 1.4556829976865864 6 2361 11 2371 13 2873 17 1621 14 2405 15 3421 9 1767 3 1835 12 2050 18 2264 6 2822 11 2507 13 2897 14 2528 15 4223 10 6949 6 3281 11 7304 13 5342 11 8762 14 5969 15 7804 9 6089 9 8400 10 6936 19 2340 19 2997 21 3515 21 4337 21 4507 25 3636 25 4449 24 3420 24 3902 22 5013 22 5585 23 5023 23 5758 33 5868 33 6707 27 5225 27 6717 30 5551 30 6531 26 5479 26 6688 32 5373 32 6534 32 7302 31 7371 31 9509 28 6939 28 9103 29 4978 29 6028 29 8513 20 1811 20 1928 1 1592 1 1676
15270 -10.267753532016258 -3.8033723878976557 16.711583180342682 140 110 67 2.4173996409878007 6 4928 11 7912 14 8154 10 7527 18 5031 6 6513 16 6332 11 1698 16 1512 13 1740 17 1757 14 1723 14 6475 11 6409 13 5760 17 6558 14 6492 15 1789 15 6608 9 1675 9 7463 10 1548 10 6222 10 6231 12 3505 21 5585 23 7343 20 3693
15271 -11.708728218791284 -5.0571569142103012 15.309042848348531 78 52 28 1.3840581260196108 16 3891 11 2232 3 4255 15 4038 21 9003
15273 -12.944243924305852 -3.6458944082316087 15.887706720250087 88 70 55 1.5092111588388504 9 2920 14 9307 3 2832 12 2522 6 4611 18 2777 6 5533 16 6311 11 6375 14 5774 9 7494 19 4427 21 4572 25 3491 24 5580 22 4854 33 7310 27 7307 30 7931 26 10223 29 8712 20 3692
15274 -12.472436362752596 -1.437239178411216 16.558259431801908 115 93 70 0.76760194812582583 3 4791 18 2827 6 4965 16 4115 11 3232 13 4158 17 2712 14 3367 15 4244 9 4291 10 3096 21 5708
15275 0.44699258118663732 -6.401762830235084 18.007183167040321 110 89 57 2.1505181303763239 11 4518 13 6168 16 3856 17 8075 14 5173 15 5304 9 3569 10 5948 18 5622 11 3806 13 2419 16 3862 17 2436 14 2243 15 2405 10 5301 19 4643 21 4278 19 4771 21 6850 25 7399 22 4751 22 5511 23 4745 33 5575 33 10585 27 6095 30 5860 26 10084 31 4985 31 10778 28 10209 29 5836 29 8855 2 4362 7 6644 5 6603 8 6501 4 3974
15276 -8.430160184481764 -2.7530515546352814 16.56554872107408 100 60 22 1.9925213533186437 9 3725 16 3320 18 3849 11 5294 17 8223 18 4392 19 5975 21 5164 21 8643 32 9558 23 7364 29 9472
15277 -12.701574926203998 -1.4522620281736154 16.476197695300385 105 69 36 1.6927119485116817 11 2495 18 1649 13 7558 14 7532 15 9295 16 7370 17 7550 10 8585 14 2517
15278 -8.6465865171926879 -4.1970992291981508 16.521595917579944 167 125 89 1.8507703379079137 6 4602 16 6278 13 6452 15 5899 10 4985 18 3541 6 3760 16 5649 13 5301 17 5606 14 5517 15 6544 9 5312 10 6168 19 7707 21 3366 25 8449 25 8460 23 8132 23 8136 27 7295 27 7297
15281 -13.74259694701729 -3.3332749318508577 15.779288311071893 157 138 111 2.027871792105115 11 5696 13 6540 16 6374 17 4008 10 5028 15 6625 12 3512 18 3776 6 4632 9 7465 11 6413 19 7675 21 8490 25 8506 23 8162 27 7318
15283 -9.7353739164252993 -2.6764227933756639 16.58178112803008 157 136 114 1.8021632080461605 17 6000 10 8617 15 6031 18 4298 3 4025 14 5902 21 8663 25 8618 24 7297
15284 0.4133705459791599 -6.2997096851360768 18.001869179412445 136 105 57 0.98064548625069403 11 1628 13 1683 16 1447 17 1693 14 1652 15 1725 9 1611 10 2041 3 2139 12 2629 18 4338 6 4296 18 1560 19 3179 21 1935 25 3026 24 2296 22 2356 23 4501 33 4418 27 4191 30 4453 26 4163 32 2568 31 2606 28 2424 29 4713 2 2381 7 1964 5 1894 8 1816 4 1670
15285 -9.5771098231060137 -1.4355737731869809 17.33241591434188 117 81 52 1.6658231581981213 13 7503 16 7309 3 2427 9 4856 11 5914 13 7496 14 4335 16 4483 17 6115 10 7650 12 4148 21 7935 25 8037 23 6308
15286 -3.4006222524943457 1.4128123881893087 19.589016917400095 89 64 43 2.3642332189174899 11 3272 13 3058 16 3450 17 3003 14 4626 15 3554 10 4853 3 5053 6 5004 11 4391 13 4655 14 4631 15 4625 17 4588 10 5474 16 4732 21 5786 33 8099 23 4685 30 9586 32 6197 2 4468 7 2486 7 3824 5 2427 5 4110 4 3160 4 4113
15287 -2.2084786217107624 -4.8921108683841217 17.563043289705206 142 99 71 2.5449946412176376 13 6403 16 6207 18 5104 15 5428 9 5516 13 5368 15 6499 21 8248 21 7774 19 8163 7 4561 7 5863 5 4441 5 4443 19 3574 8 5783 4 5475
15288 -0.50678388166684407 -2.5668168075851421 18.449583278296149 17 15 8 1.4134949884603012 6 2365 11 1402 18 1646 3 2907 12 2637 19 2359 14 3363 25 2859 24 2705 33 2847 27 3629 30 4628 26 2832 29 4534 1 2273 4 2035
15289 -4.9609254097276887 -5.767228415419364 16.839965627601458 79 49 30 0.62975198321612436 10 5991 11 3168 13 2718 15 3376 18 2889 11 3816 13 2402 14 2257 15 4024 16 2223 17 2421 18 3457 32 5025 31 7055 2 1960 2 2371 7 1825 5 1623 5 1787 7 1946 8 1674 8 1797
15290 -2.3976917608274535 -0.22635997226520416 19.119813402009356 49 38 31 2.1364576289485222 9 3926 11 4141 13 2538 14 2624 15 2353 16 2452 17 2630 6 2719 12 2737 19 5190 21 6512 24 4939 22 7351 28 5799 5 1706 4 1949
15292 -0.94017903697134875 -4.8596603230198694 17.560411743313498 131 120 109 2.4013873085083315 11 6294 13 6397 16 6214 17 6449 14 6370 15 5436 10 6116 18 5100 14 5316 15 5439 6 2509 16 983 11 1149 21 4810 16 6224 30 2850 26 1721 32 2616 9 2908 29 2436
15293 -11.2220058025028 -3.1595645232713609 17.2495154943405 105 91 78 2.311769551922302 6 4944 16 8092 11 7933 13 8220 14 8173 15 8338 10 7558 9 5537 18 3825 11 2301 13 2475 16 2300 18 3821 14 2343 15 2493 17 2542 19 7424
15294 -6.0728630347787984 -3.0006320441095045 18.206215029421475 81 35 18 1.4194850066517244 18 3196 10 1582 3 1524 13 483 15 1819 17 1783 14 1120 16 1110 15 1474 12 2029 21 2984 25 8641 22 8141 30 4571 26 5460 32 5337 31 5931 28 5452 29 6011
15295 -0.78290498629142669 -1.9010370423571608 18.284449122611313 49 30 18 1.7392101241807676 11 4074 13 2595 18 2301 19 8041 21 6266 25 8815 23 6347 32 7456 2 4815 4 3374
15297 -9.6606652608734027 -5.526751041252993 15.779334834433797 119 86 48 2.1616311890257234 6 1076 16 2218 13 2405 17 2427 14 2251 15 2391 9 1613 10 1173 3 1481 9 7015 12 1396 14 2573 10 5308 19 6424 21 2366 25 5347 25 5965 24 1817 22 2187 22 4766 22 5517 15 4008 13 3919 14 3944 16 3863 17 3899 33 5568 18 1387 30 4435 30 5933 26 4147 26 9109 32 4500 31 4514 28 4266 29 5818 20 2500 1 1319
15298 -0.38440484067050706 0.27019940332828613 14.545252661697377 8 2 0 1.5277197696693989 3 1950 12 1338 18 1082 14 1221 16 1389 17 1278 13 1321 15 1440 19 2112 21 2144 2 1363
15299 -13.927477184131988 -4.9141616215332986 14.992650271537546 193 142 92 2.3000173959477532 11 5129 16 5161 17 6260 10 4136 14 5222 18 3470 9 3601 6 2962 16 5168 11 5140 13 5204 14 6207 15 5348 10 4050 3 2740 19 4807 21 3304 25 5374 24 8150 22 4783 30 4459 31 4542
15300 -13.928351034635762 -1.4503959790622645 15.626857919194661 49 31 15 1.3522987301374869 3 1926 13 2668 18 1700 13 2242 14 4157 15 2781 17 3439 10 5614 3 2119 21 1196 21 188 24 2724 33 4574 33 7493 25 246 30 5633 26 5477 32 5514 28 5286 31 5840 29 6022
15301 -11.882432717428179 -2.5370960884511953 15.704050007959964 74 56 41 1.4477946922724645 9 7930 12 3091 15 8356 18 3177 10 8619 16 7632 15 6778 9 8531 19 4537
15302 -5.9293497930045298 -4.0260740870874931 16.031129950142351 61 44 26 1.6126933204269021 15 6569 18 5058 10 6202 16 6301 6 5549 17 6520 18 3740 14 5775 16 6300 21 8365 24 7410 22 7971
15303 0.11199398600917072 -6.8652688367426604 18.136131175411712 55 44 25 0.95803953757759186 11 2557 13 1535 16 2591 17 1591 14 1825 15 2754 9 2820 10 2082 3 2284 11 7812 13 5532 14 8058 25 3054 24 3106 23 4475 33 4378 27 4156 30 3746 26 5078 32 3792 31 4493 28 4245 29 4755 2 1804 8 1844 4 2218
15304 -4.8649877365289544 0.030005224512182016 18.697730470444593 51 36 23 2.0514771992375618 11 5622 14 4517 17 4460 10 5452 13 4537 15 4513 16 4643 3 4978 14 7188 18 4601 13 7218 16 8277 17 7260 19 7831 21 6517 25 9043 19 6046 21 8006 23 7457 33 9599 3 4981 27 8625 30 9531 32 2909 31 3071 31 9618 28 9189 29 9572 7 3100 5 3019 2 4109 8 3028 4 2864
15305 -12.104057440431498 -6.0900214208097436 15.373141777173114 114 83 43 2.3556000039842333 6 4470 11 5045 13 3867 18 4758 15 9316 3 4714 23 4689 33 10503 28 10130 20 1228
15306 -8.4090840978197026 -2.8649057648498299 16.4138214669596 113 70 25 2.2296924281151691 6 4946 18 4390 12 4654 17 3272 18 4924 14 3334 21 8634 19 5972 25 8600 25 7990 22 8269
15308 4.1587681760869346 -3.2907572363815136 13.626172609664801 0 0 0 0.10474055086598899 3 38 12 32
15309 -13.198411266278553 -0.56809693697942454 14.515724881063873 220 165 98 0.91811032048149488 12 182 18 163 19 223 21 161 25 202
15310 -2.4928002757288708 -2.1936791744659603 17.832335341828394 15 10 6 2.0618971622125049 9 202 11 201 14 172 17 203 18 395 13 106 16 204 21 328 19 415 24 685 23 540
15311 -9.8441965777050005 0.73680797906953366 10.265511195295346 235 214 175 0.71758539191110771 3 383 18 512 22 1842 27 3322 30 1912 26 2211 29 1767
15312 -3.1646395967718273 0.87907792705360643 9.2153375467521208 164 98 60 1.3598521943619113 12 640 18 1111 19 2516 3 702 21 4398 25 2738 22 7088 23 7053 33 7900 31 6077 28 5798
15313 3.1005449503667628 -2.961740368830156 13.547015802435737 239 231 210 1.4867582914320965 19 1788 21 1872 25 5549 24 5581 22 3272 23 5172 30 4563 33 4553 31 4652 26 3453 32 1514 28 3859 32 4651
15315 2.7431203117357406 -0.95218663547953453 13.360376039918616 32 18 5 1.4264717021416411 12 1963 18 1688 19 2411 21 1510 25 2795 24 2461 22 2548 33 4695 27 3364 30 4706 26 2893 32 4771 31 4766 28 4529 29 4460
15316 -2.7028920992321761 1.0406116900505009 8.3643720589204342 117 125 121 2.0731163928277319 12 1612 18 1932 1 1772 19 5338
15317 -14.070464639833741 -4.0790019779414983 15.60197089835891 137 98 55 0.95194744808140486 14 2297 17 2580 21 4818 25 8430 18 2155 24 4597 22 4825 23 4820 26 10169
15320 -11.276504776395068 0.39132034430011731 10.674729461792026 250 234 201 1.0978153892559761 3 1902 18 2342 19 6021 21 2967 24 3828 19 1902 26 7357 32 5234 31 7483 29 9941
15321 3.3523546408939504 -1.5923596137450229 11.604817216205777 183 99 161 0.056214197216243225 12 1952 18 2550
15322 0.34995530905404543 -2.3450044541682944 13.389789521277738 180 110 45 1.3258091332450002 12 2544 18 2568 8 2468 4 3250
15323 -0.79265589387310342 2.9451224981416226 19.891000994122557 42 0 1 1.1426880190747302 13 2304 17 1909 25 290 18 2613 22 3689 26 3012
15324 -8.5371436419976359 1.12341626170404 9.1634765535469764 146 134 120 1.1930994552669396 12 1570 18 2702 19 3477 22 5618 27 6750 33 6734 30 6557
15325 -7.5479571719866838 0.82842314623470314 9.545502660432863 198 109 77 0.93816314325553152 12 1979 18 2715 19 3481 21 3701 24 4901 22 7335 23 5200 33 7738 27 7705 26 7456 32 7502 31 7596 28 7165 29 8324
15326 -8.3766850677812972 0.85178764767091009 9.4290990295626003 144 149 122 0.82743927359356861 12 1836 18 2717 21 2149 25 3774 25 4949 24 3239 22 4051 23 4125 27 5380 33 7718 30 7483 26 7428 32 8065 31 7578 28 7136 29 5237
15327 -6.4217039044045929 0.70076126995132459 10.532264104212084 162 130 124 1.3770732634568961 3 1182 12 1560 18 3108 19 6049
15329 -0.87683863992369382 -3.3410161070447204 17.979778814328732 116 103 91 1.5097852422241393 12 3554 13 7771 16 7597 18 3847 9 6038 11 7459 14 7742 11 5792 14 3477 17 4067 19 6444 21 8651 33 7499 23 8277 27 7468 30 7269 32 7296 29 8526 7 4766 5 3428 5 6614 8 6693 4 4565
15330 -4.0230605919319187 -0.35748810665584885 8.6009710017770153 108 74 47 2.1070349605569048 3 3501 18 3989
15331 -9.0808268759958377 1.0778724441679786 8.9244001957013239 187 175 147 1.3031168402420223 12 2764 18 4092 19 7143 21 7675 3 2607
15333 3.5246716172990467 -1.3981416512361937 12.091674078858015 26 15 32 0.80800000727094312 3 3438 12 3328 21 6284
15334 -1.4971958609241736 -2.6675126290345257 19.271367520590907 175 127 106 1.5912321794951141 9 8389 14 4158 18 4815 3 1815 19 5035 25 8756 22 5053 23 5061 33 7605 27 7574 30 7362 32 7389 31 7460 28 7024 11 4021 29 6081
15335 0.47024218483039398 -2.1315144111396616 13.659198514548914 129 100 66 0.8401563865351882 12 4255 18 4846 19 6375 25 8706
15336 -2.7944890715153803 -2.8804517256469251 18.532794650913708 40 33 25 2.439712745457542 9 3744 15 7861 11 1506 13 2520 25 5657 20 2213 27 7770 23 5282 8 2168
15339 -15.34769484520136 -0.90110902122278402 15.09748930194209 32 29 24 1.3633160161315894 6 6534 22 400 23 388 20 373
15340 -2.8700940720380772 1.1832925268484846 8.6868132263586322 142 150 139 0.072195494052743447 3 2067 18 5553
15341 0.13280473320628203 1.5061031452362557 19.62837379596187 69 44 24 1.9726436752710108 13 2830 18 5633 14 2757 17 2368 24 1158 30 409 32 9137 23 6783 26 6003 30 8954 28 8689 15 860 29 6398 19 1612 17 2362
15342 3.1596923786647348 -5.7681916606181227 16.182482307457366 246 240 228 1.5209381960705395 3 4299 18 5644 21 6821
15343 -4.5408617074248214 -4.5566069922836681 17.010667165049032 151 127 112 2.2216540128547386 13 6413 16 5629 11 5503 14 5596 17 6019 18 4363 14 6393 21 5583 21 8286 21 8295 29 8732 23 8118 33 7292 7 2429 7 3580 8 6529 4 3872
15344 -12.690041257297201 -1.8232612242735755 16.259651775185784 70 41 23 1.6485708807748087 6 3892 16 8610 11 7330 13 4131 13 7647 14 5347 15 7833 9 5546 9 7944 10 5598 10 7615 3 3870 9 6072 12 3577 12 3730 18 3893 9 8428 13 8280 14 5378 16 6464 10 6970 15 8383 21 7896 21 8774 18 4400 25 8022 25 8711 24 4741 24 5729 22 7283 22 8174 23 5755 23 5014 33 7486 27 7471 27 9133 26 7246 26 10375 27 5199 29 8536 29 9489
15345 -12.728932776842788 -2.4138699268688115 16.218953453992235 12 1 0 2.3723597898551936 6 3861 13 5875 17 7728 14 7727 15 4177 15 6043 14 5904 16 5799 17 5732 9 5326 10 7036 10 7053 13 5871 17 5997 18 2225 24 3956 22 4949 26 10327 31 7310 28 6885 1 1163
15346 -1.7289834615610533 -3.2444850297585122 17.806310946224798 77 61 50 1.9575347350476018 11 7952 16 5219 10 7578 18 3189 6 5453 9 2332 15 7924 12 2027 11 7451 13 7763 16 5195 10 7063 6 5879 19 2314 19 3536 19 4553 25 5617 25 6032 33 5865 30 7270 29 4977 29 6027 20 3738 7 4783 5 6591 5 6608 4 4589
15347 -5.5609861134192764 -5.7260117313912104 15.627446961808523 188 149 118 1.9592752921661756 9 6978 10 5928 11 6054 16 4511 17 6167 13 6151 15 6256 13 8088 9 8608 14 748 18 5719 10 1176 15 751 17 6156 15 2938 25 7143 24 1806 24 5578 21 6798 22 7831 33 10554 27 10137 30 5832 26 10057 31 2234 31 4964 28 2060 28 4662 29 8882 23 4723
15348 -1.7585773081647875 -6.8899103155452659 17.635615951969395 90 69 54 2.2820778373516992 6 4309 16 9016 11 8838 13 9305 17 9041 14 9075 15 9275 9 5066 10 7428 12 3338 11 5976 16 5860 17 9070 13 3869 17 3843 14 4397 15 5231 9 4211 6 4887 10 5271 33 10495 3 3824 27 10079 30 10440 26 9988 32 10601 31 10696 28 10122 20 4041 2 3391 2 4980 7 3339 5 3546 8 3826 4 3951
15349 -15.237752912820183 -6.053660158094635 12.461410140109276 125 109 86 3.3277255438593536 16 2891 11 3649 13 3773 17 3743 14 3784 15 2253 9 3424 10 3480 16 2622 11 3101 13 2199 17 2240 14 2130 15 2256 9 3103 10 2980 3 3166
15350 0.8621332246639446 -7.9509642448426989 17.255806426214001 64 45 36 1.2528822105093946 11 146 16 72 13 70 17 78 14 102 15 96 9 76 10 137 15 71 3 128 23 238 33 207 30 234 27 231 26 184 32 188 31 240 28 209 29 215
15351 0.48183244720302948 -2.0606527075554171 14.092786446483203 81 47 29 1.5228265431774013 6 547 13 173 14 240 16 280 17 238 15 228 9 474 3 408 10 604 12 479 18 478 21 513 24 1467 1 1123 2 642 7 349 5 340 8 509 4 332
15352 -0.37427935249459054 0.28378906542084609 14.625078197929069 3 3 0 2.0903743987279908 16 1784 13 1289 17 1248 14 1242 15 1953 9 5799 13 3401 12 1220 18 1294 3 2087 19 1944 21 1583 25 1819 24 1985 22 1899 23 2518 26 2175 29 1820 2 1768 7 1582 5 1577 8 1487
15353 0.81359395265307122 -3.2562370921523485 14.243478269358416 199 111 21 1.0676626391851027 10 626 13 257 14 184 16 190 17 190 15 258 3 461 6 788 12 487 9 393 25 1509 23 2145 33 2788 27 1981 26 2777 32 1150 31 1196 29 1258 2 632 7 337 5 496 8 584 4 546
15354 -13.907105603824114 -2.0288000360355993 15.474175377376845 16 10 7 1.7756912207213857 9 6053 14 5924 16 5811 17 4076 18 2232 19 2320 21 3480 13 7714 9 8475 17 7685
15355 -12.804744964766023 -1.5851200379417454 16.305828357332228 89 67 50 2.3271339586781452 6 4700 16 4440 11 8782 13 5965 17 6077 14 5996 15 6137 9 8382 10 6900 16 795 13 795 14 803 15 805 10 1068 3 1058 12 987 25 1731 24 1903 33 1720 26 1796 26 7262 30 1884 32 1518 28 1484 31 1594 29 1743
15356 -2.7850065118159928 0.64167487452500571 17.145199939135015 28 12 5 1.6180440834601475 18 2 19 4 21 4 23 58 33 66 27 70 30 71 2 11
15358 -0.41535924201038266 3.3167927444792964 14.892247951041293 53 2 5 1.4264230479811504 19 23 25 20 24 31 22 30 23 39 33 36 30 40 32 28 28 29 29 43
15359 0.86665621230592138 0.52174621809034505 17.872907787042763 51 32 23 1.7552543340071374 9 2040 24 33 26 25
15360 -1.8823463968249003 1.7913842680092813 7.692020351263821 67 49 49 0.78362683769968811 18 10 19 28 21 28 25 26 24 54 22 45 30 91 26 110 32 107 31 85 28 89 29 93 33 105
15363 -11.42664877932225 6.815785444103815 19.625863807471767 142 164 156 1.104837013801115 3 529 19 38 25 1587
15365 -0.92941234435080089 3.4981511681165172 10.506528515808569 13 9 15 1.1157137350595796 18 33 19 44 21 31 25 43 24 58 22 42 23 62 33 48 27 58 26 53 32 61 31 53 28 51 29 60 20 40
15366 -13.043354262246739 3.0145849879036071 17.166131284680084 52 53 44 1.9815135491982068 3 1193 19 71 25 3912 24 2598
15367 -2.7157820561458434 2.3090165400544111 19.635955018933736 51 17 5 1.6221785544220242 13 1905 17 1905 14 1502 25 128 30 8936 32 9122 31 9015 28 8677
15368 -1.4237827632796414 1.9871681512455768 8.5736243830834784 222 179 149 1.1902545881372624 18 70 19 76 21 66 25 79
15369 3.7612682579575383 -1.6832643375124201 12.037154462817949 249 234 229 0.95177785118870339 18 61 19 88 21 96 25 56 24 84
15370 -1.4237827632796414 1.9871681512455768 8.5736243830834784 222 179 149 1.1902545881372624 18 71 19 91 21 92 25 62
15371 -8.75536993865909 -5.5511576924887862 15.048908031364862 197 154 103 1.8789617511690428 12 73 19 94 22 97 23 180 20 170 25 143
15372 -1.2800526540825707 3.5205118415521905 8.8047705288172455 39 12 17 0.9186883553832319 18 92 19 97 21 72 25 137 24 142 22 152 23 196 33 250 27 255 30 183 26 220 32 213 31 208 28 175 29 246 20 149
15375 -14.962425867167964 0.076395684862140448 16.798418202997418 38 28 16 1.7020130972482581 6 5299 10 6759 16 7148 9 8216 13 4464 24 5942 22 790
15376 5.4340971887649623 -4.6510341083829418 18.889962103528024 24 19 23 1.9405178818804252 9 5957 19 151 25 2940 24 1168 20 3697 2 1719
15377 -0.046797284549219879 5.0876894831390143 12.852085825093674 140 74 23 0.77228889606497508 18 211 19 181 25 239
15378 -2.8318032174206893 1.5770033959913594 7.6114977706981968 77 119 113 1.3024494075475501 18 143 19 188 21 211 25 377
15380 -1.1113707080938107 3.9012944734563959 10.15715739305989 155 89 29 1.6293584014178526 19 197 21 232 25 241 24 303 22 284 23 452
15381 -4.80011302293771 0.98109061415182086 8.0097240515712169 73 63 55 1.6491320787971486 18 75 24 878 21 141 27 2383 30 2092
15382 1.1151153969444094 0.95966845513928112 19.570647505340883 51 31 20 0.75718165675936722 9 3189 19 227 14 8568 17 8403
15384 -4.9294560934263707 1.1438688426908381 8.6751036828691568 201 204 183 0.55316961507145124 18 135 19 241 25 359 24 412 22 532 23 567 33 946 27 1091 30 737 26 474 32 861 31 927 28 830 20 600
15385 -4.4440584849712712 1.4457773664356846 7.8712851885170512 193 112 67 1.6388386064288596 19 248 21 208 22 417 33 595 30 541 23 572 26 578 32 572 31 551 28 500 29 571 20 694
15386 -2.2773223578931798 1.4970553057205718 7.1356579302597138 192 129 116 1.4024679166990806 18 54 19 256
15387 -0.33221476330616806 3.7880164201108597 14.062832042556362 106 50 15 1.353167730419907 18 201 19 263 21 225 25 389 24 296 22 277 23 359 33 412 27 554 30 308 26 382 32 297 31 274 28 285 29 340 20 670
15388 -8.0171709226952679 1.5519419866608128 7.7963223094200842 82 42 32 1.1294521924685541 18 265 19 288 21 401 25 436 22 808
15389 -6.9070244506369196 1.8733557065828914 6.4707384612861452 55 44 42 0.59079279516890604 18 192 19 301 25 448 24 528 22 820
15390 -4.0056842221059581 1.6509106901910182 7.1554723978705974 96 57 53 2.0947687035242848 12 96 18 162 21 382 25 989 24 1012 27 2195 33 2246 30 1968
15391 -15.424138615251412 4.9186640656990193 17.235543580667731 239 146 105 1.151942128183604 9 2616 19 309 21 1706
15392 -4.2267939244019646 1.8071025870637953 6.5482208016845922 50 86 98 1.8451489005837043 18 87 19 311 21 216 25 455 24 1016 22 1059 23 1391 33 2253 26 2278 31 2071 28 1894 28 1895
15393 -3.4857495609326317 6.0667523106339418 22.714745045671467 12 42 66 0.74933100359590143 3 997 31 877
15394 -1.9320418304389466 -7.1151651882036155 18.070690422244269 49 34 18 1.9497321091798485 12 367 19 355 25 673 24 469 26 456 20 869 1 538
15396 -1.1928677504304259 -3.9922917281161019 18.775743260703571 198 177 145 2.1102581283138893 11 7555 19 364 14 5848 15 9136 17 5937 25 262 2 4255 7 4699 5 4574 8 4624 4 4530
15397 -6.9070244506369196 1.8733557065828914 6.4707384612861452 55 44 42 0.59079279516890604 18 229 19 377 25 618 24 636 22 931
15398 -3.3702008903867204 1.7424368667474164 6.9174794672439273 167 192 186 2.4726698401725145 18 196 19 382 21 252 25 622 24 889 32 3895 31 3384 28 3724
15399 -1.9627199359199072 -7.1360903959218813 18.179173495130264 49 34 18 1.1171674753924736 12 506 19 425 24 596 26 648 1 715 2 275 7 477 5 469 8 391 4 283
