# 3D point list with one line of data per point:
#   POINT3D_ID, X, Y, Z, R, G, B, ERROR, TRACK[] as (IMAGE_ID, POINT2D_IDX)
# Number of points: 377, mean track length: 5.5481256332320159
5449 -3.256738275770755 4.0173255418769704 3.4768470285359458 217 170 134 0.48193647241616638 15 4335 17 6799 16 3663
5450 -3.5553409519679402 4.0309219426366019 2.6593214774220297 63 51 37 0.19390736808955486 15 4315 17 6708 16 3666 14 6486 8 3106
5451 -3.1652760362198045 3.8407630848334935 1.1789629235271495 188 93 63 0.68604615127955215 15 5099 17 6999 16 3670 14 10153
5452 -1.072161326952586 4.9311092036160202 4.2218502393620838 58 20 8 0.70188555446185275 15 6582 17 4930 16 3672 14 6655 8 2762
5453 -2.1889462816852685 4.5779410273973804 0.83769638280659653 151 41 1 0.20741074826614947 17 7251 16 3677 14 6418
5454 -11.551887800864012 -5.6305822012793723 17.644648174641354 167 103 61 0.81548255755656751 4 2094 15 3193 16 3750 14 2204
5455 -13.868652742529859 -4.5622343574954973 15.275112012648705 52 25 7 0.77300952994968575 4 1173 15 5441 17 6124 16 3804 14 5201
5456 3.0692520917419053 -3.1985295680982286 18.205637835962818 180 71 48 1.2705880483033067 7 1887 16 3829 14 5264 13 3059
5457 1.8347541196254722 -3.1740534213393459 19.242314483666579 50 25 3 0.65913004038168888 7 2018 16 3849 14 4041
5458 2.9982860540135943 -2.8204280002595792 18.033160297848937 72 40 23 1.1334153877351039 6 2561 16 3861 14 9625
5459 -2.0639194843551105 -2.3320698561145656 17.853153871107693 133 107 77 0.94549341816168142 7 3545 15 3884 17 5206 16 3918 14 4094 8 2231 2 1598 6 1980 5 1493 3 1383
5460 -5.2410096223399956 -2.2285396032662321 17.467184897820154 95 64 33 0.72081494419217373 7 1590 11 1154 12 1074 15 3872 16 3939 14 4104
5461 -3.6973705412373494 -2.0151164986204342 19.586511836855994 44 21 3 0.82760043137713091 11 3712 16 3970 12 3160 14 5456
5462 -5.6827961423036317 -1.6879003595025155 17.912000097269726 217 169 115 1.5650386977362831 4 2065 16 3988 8 4321
5463 -11.401861372899575 -0.49610620555574469 16.872077519766268 135 97 58 0.99918555331965642 4 2884 16 4058 8 5494
5465 0.17509527942294612 0.27724453336518229 18.452813762590758 93 67 45 1.4375080575394992 6 2833 16 4125 8 4448 10 3041 2 2039
5466 -13.118555138687571 0.92718385992988883 16.636132516584155 229 184 134 0.46016932429470259 7 925 11 1059 12 1005 16 4145 14 2414
5467 -2.0185915353182136 0.68944918540894606 16.974865126264312 76 37 22 0.87699209686666968 6 1614 7 1639 12 1694 16 4158 4 1713 14 4275 1 3168 5 1358
5468 2.25487702578299 0.75299878418313237 18.518502671285823 105 62 13 0.28275015659100805 7 2223 16 4178 14 4292
5469 3.0698501690572728 0.70401380494203247 17.18905306122296 176 130 66 1.0985767736494276 6 2871 15 5863 16 4181 14 4298 8 2363
5470 1.895578276693652 0.87733273443426596 18.719486568364157 163 122 78 0.18160140432716565 7 2231 16 4187 5 2714
5471 -3.7885465222277608 1.3040794107936478 17.099627828875086 184 157 132 0.30255455952931798 4 1731 7 1661 12 1723 15 4688 17 4452 16 4203 14 4316 9 2393
5473 -2.2087933807925686 1.6868996545556267 16.85051605067542 59 36 22 1.0800848227051658 6 1653 16 4234 11 1728 8 3213 13 4249 14 4346 3 1573 5 1150
5474 -3.888046070411979 2.1274020265795746 16.959560657659619 216 183 149 0.60334059937205475 4 2685 17 4493 16 4244 15 2437 14 6785 12 5722 6 4401 11 5316 8 3234 10 2429 9 3361 1 1433
5475 -8.6333473329659842 2.7739204013223202 16.649265213788315 228 189 144 0.65165487197548266 11 1747 12 1763 15 4636 17 4502 16 4258 6 1115 7 1707 14 4912 8 2426 10 2945 9 2645 13 3208 1 1958
5477 -10.40871374675968 4.0071131818535477 16.8338743269261 144 107 78 2.1240450258371366 4 1802 17 4548 16 4299 8 3311 10 2899 1 2035
5478 -1.3260797010219207 3.7350311887008156 17.380092428937893 55 31 7 0.65239903369554053 7 2332 15 4570 17 4576 16 4327 11 2279 12 2308 14 4411 9 2692 2 1285 5 1188 3 1185
5479 -2.0887243869612466 4.0490815830700626 17.383411229303075 195 152 117 0.79526855779300687 7 2354 11 2259 12 2285 16 4334 14 4423 5 1760 3 2024
5480 -4.0898795273434514 5.1033243641168546 17.362173036916705 189 163 130 0.74184044158342588 6 2206 16 4371 10 2844 9 2932
5481 0.63539754338888654 4.6649947258978788 17.455506591826474 218 199 175 0.79451365625111492 6 1394 12 4156 16 4380 14 4464 9 2048
5496 -4.8766036649997222 4.1875416376383603 4.6995466284567708 74 73 60 0.60130676907293601 15 4391 17 4762 16 4501 14 4594 10 691
5498 -2.2313728930037016 3.9886925572900265 5.890429039119331 203 174 142 0.49653387990640407 15 6284 17 6235 16 4504 14 5864
5500 -5.1253482892346618 4.0731863521224572 4.1180119179740204 195 153 111 0.35661429633785374 15 4386 17 5239 16 4507 14 4597
5502 -3.0955513657142344 3.974244623240442 4.9557202540772627 229 175 141 0.20895737568045936 15 6296 17 6250 16 4511 14 5877
5505 -2.247938885386104 4.1766651720029504 5.9441533775382585 181 170 145 0.66769413436970881 15 3517 17 4775 16 4517 14 3725 8 3597
5506 -1.8515407480398678 4.2129008140117365 6.2772745020936149 228 205 190 0.82559012562143663 15 4369 17 6262 16 4518 14 7465 8 2667 10 1876 9 1322
5508 -5.1964239580370792 4.170897240674126 3.5705573225356821 168 171 144 0.072766379183645868 15 4364 17 4780 16 4524 14 4612
5509 -3.7654783254259399 4.1055605363190084 4.3818952515302563 90 92 85 0.70357048523918386 15 4363 17 4781 16 4525 14 5896 8 2645 10 1145 13 3428
5510 -1.0153184657637484 4.2883184838631481 6.6292961834336159 66 63 61 0.64104374944216025 15 6322 17 6284 16 4528 14 5901 8 3607 9 1723 10 5734
5512 -5.2171396551466431 4.1726752320152611 3.4250886790500177 112 84 51 0.28075850935845192 15 6321 17 6285 16 4530 14 5900
5513 -3.9831287415947774 4.009868520769813 3.777673667558112 238 166 82 0.423528823543454 15 4359 17 4786 16 4531
5514 -1.8970485452739994 4.0905325831128758 5.3883096163696376 81 88 80 0.57745571021187858 17 4789 16 4532 8 1933 10 1326
5515 -3.6093084485751046 4.0518283834402791 4.0094249747683213 142 33 7 0.78210561777555798 15 4355 17 4794 16 4535 14 3489 9 869
5516 -5.2508222671338887 4.172548297742801 3.2222132995191242 78 71 38 0.60073229638192172 15 4356 17 4793 16 4537 14 4623 8 1949
5517 -5.6487862011385248 4.1117009836129261 2.7592158322680551 93 52 34 0.69930775850368421 15 4351 17 8102 16 4538 14 4624 10 1924
5518 -6.1403807397867389 4.1288799224922581 2.3894359472664153 77 70 52 0.50566648595012986 15 6333 17 6292 16 4539 14 5911
5519 -1.7099867679897327 3.9196152136662246 4.8602995956476072 202 137 108 1.0532372178213583 15 4349 17 2971 16 4540 8 3630
5520 -4.9417431784245132 4.1184843062518341 3.1067524838875871 80 43 27 1.0051771565624141 15 6878 17 4798 16 4541 14 5915 8 2626 10 717 13 2564
5521 -3.7455300737734487 4.0790941772114877 3.7937125538610705 82 46 30 1.0394198620163928 15 4347 17 5920 16 4544 14 4630 8 2630 10 2259 9 788
5522 -3.7623355964961664 4.0335326302340153 3.572506236986257 78 58 50 1.0160284223227085 15 4346 17 4802 16 4547 14 4632 10 1299 13 2678
5523 -3.0517507335722356 4.0550495757928964 3.8758617078718638 109 43 30 0.85755225355993259 17 5723 16 4550 10 1298
5524 -2.8965951107902108 4.0811525128958568 3.7705177483424848 157 153 145 0.22628506772469828 17 6339 16 4557 15 6374 14 3870
5525 -3.2205111502878263 3.9982075649744586 3.3287829483580791 173 63 40 0.37335416965839441 17 6338 16 4559 8 1970
5526 -2.4529546728624494 4.0300355391043858 3.7572367824422805 224 198 186 1.1258756649481452 15 2211 17 2992 16 4564 14 3177 8 1968 10 720 13 2497
5527 -2.2497997345959324 4.1267007556403499 4.1736870341261945 112 175 184 0.29498285917989264 15 6381 17 6348 16 4565 14 3178
5528 -4.166955096062364 4.0377615409214753 2.4716765910894534 80 72 49 0.25540560746426666 15 6389 17 6358 16 4570 14 6477
5530 -3.5929159370158175 4.0509445660157191 2.8219222365157663 213 183 139 0.25315224111031143 15 6396 17 6514 16 4578 14 6478
5532 -2.3318037855033995 3.8774937100623066 3.1682364297049883 186 189 182 0.13772068441987356 15 6400 17 8865 16 4584 14 6484
5534 -3.002601326241463 4.1738878140193325 3.2128442709936449 80 147 145 0.39201553985978166 15 6420 17 6925 16 4593 14 3197
5535 -3.2895504840316474 4.4460823207680509 3.5982230205850279 20 54 48 0.9067381172526755 15 6419 17 8838 16 4596 14 3200 14 9302
5536 -2.6073678483339728 4.0087083640602108 2.9004271032932927 136 161 156 0.53186343792111312 17 6818 16 4605
5537 -4.4762794129742716 4.0523836414127299 1.6285141722160463 200 181 153 0.41638718816757614 15 3490 17 3838 16 4607 14 3213
5538 -4.1514397288047462 3.946916403326036 1.6122081293543862 185 184 157 0.41029006611034802 15 6438 17 6943 16 4608 14 3214 8 2776
5539 -3.9263792575683851 3.9593226819602436 1.8033913803173351 195 193 168 0.27901926684176326 15 4294 17 4846 16 4609 14 3215
5540 -0.72756639655780364 4.8658102942272823 5.9212627104417672 43 72 93 0.48674306244293486 15 6447 17 3943 16 4610 14 6521 10 2241
5541 -3.7686905232317707 3.9264747644150289 1.7936608195351449 218 183 151 1.2033925957996612 15 4292 17 4851 16 4611 14 3219 8 2086 10 540
5542 -3.8914513534880966 3.9634616074198625 1.6965047603028551 55 37 28 0.25315752396141944 15 4288 17 4856 16 4614 14 3224
5543 -4.5895579310626324 4.0991996007518212 1.4358429945988536 94 34 12 0.29920485686588227 15 4287 17 6958 16 4615 14 3227
5544 -4.0441054551968598 3.9791516852750202 1.5199988103580833 195 193 168 0.14663987666323156 17 6960 16 4617 15 6460 14 6533
5545 -3.8998934284046483 3.9971818932362551 1.6472356551245324 178 203 182 0.10059055205837304 17 4863 16 4621 14 3233
5546 -1.8065182257895165 4.470457662994642 4.0818216146369721 93 25 24 0.7209205460426964 15 6884 16 4622 17 6964 14 6542
5547 -2.1004725842067691 4.2344362708835481 3.3562336957983239 77 78 86 0.24556008247790881 15 6473 17 4864 16 4624 14 3237
5548 -4.6428404017049978 4.140731687665073 1.353326267947641 213 163 123 0.10527142940636999 15 4281 17 4866 16 4626 14 3236
5549 -3.5743908692110242 3.9679568508643377 1.6885485342828019 232 168 106 0.17074854137439149 15 6478 17 6968 16 4630 14 4652
5550 -0.98592081197270587 4.68974282743579 4.9365433014191478 212 191 183 0.97007448132213092 15 4273 17 4872 16 4631 14 3247 9 1818 13 2478
5551 -3.4436145901234263 3.9704170647350145 1.7654333966647766 210 160 96 0.2149698126145661 15 4277 17 4871 16 4632 14 3241
5552 -2.1791956891703315 4.4216846701604151 3.5032072832118479 40 30 31 1.3901224040322577 17 3027 16 4634 14 3246 8 3748
5553 -3.8132323412581166 3.8165176510106598 1.1301106487355985 117 143 125 0.24758306708639055 17 6828 16 4637 14 6349
5555 -3.1003857694709649 3.9417864530090294 1.7861020769663249 200 188 176 0.31954703976711085 15 4270 17 4873 16 4647 14 3254 8 2013
5557 -4.8292944988821906 4.1810741338006467 0.95798761511027797 77 4 0 0.46934263258028225 15 4261 17 4881 16 4654 14 3262
5559 -1.0461825322898495 4.8889480193511767 4.8393667751986209 173 144 93 0.95923430740769289 15 6519 17 6998 16 4658 14 3280 8 2961 13 3492
5560 -1.1815474708462936 4.7166732901978818 4.3741761040160068 203 177 173 0.4306718196252628 17 4896 16 4660 15 4248
5561 -3.2414688922782995 3.8989864790907061 1.3455964145278203 77 45 24 0.27566556891662242 15 4255 17 4885 16 4661 14 3274
5562 -3.8860005838589879 3.9780024666952838 1.0528500023591343 48 51 31 0.61434028263508778 15 4256 17 4886 16 4664 14 3273 8 1509
5564 -0.68971749240609181 5.558712228658985 6.2264057110448716 39 110 132 2.0927881402294952 15 6544 17 2628 16 4668 9 1390
5565 -3.8447195054519971 3.9963664524988887 0.97558506403422685 189 86 43 0.60618068488100585 15 7568 17 7005 16 4672 14 8472
5566 -2.3097621617681101 4.3653286061226382 2.7164424009606614 33 22 18 0.30994594546965915 15 4241 17 3331 16 4675 14 3294
5567 -2.3142166738989949 4.0183304924474932 2.0137846552722185 32 35 46 0.40940178716243347 15 7556 17 7010 16 4677 14 3293
5570 -1.2367847996270769 4.7644052561604262 4.1329098707106855 38 21 13 0.327438062019689 15 4236 17 4912 16 4681
5571 -3.4657352520078528 4.0771162234053619 1.2450308883463044 175 174 151 0.33665947427766391 15 4237 17 4909 16 4684 14 6612
5572 -3.1917351497760449 3.8823864435039175 1.0606488631556139 197 184 175 0.45705038599250158 15 4238 17 4908 16 4685 14 3297 8 2035
5573 -2.1742754276044174 4.2779747368599894 2.484451504993141 97 47 48 0.38678090650042773 15 6547 16 4686 17 8664 14 8424
5574 -1.1228252677482817 4.8143043209934913 4.1839759898398219 38 9 3 1.0152253591266014 15 2664 17 4916 16 4687 14 3303 10 1964 9 1999
5577 -0.62567586872653669 5.7600024892204793 6.2600140122249268 201 178 186 0.79803800021783144 15 4221 17 4924 16 4695 14 3309 10 3171 9 1790 13 3499
5578 -0.95469052981708158 5.238496417977804 4.9836541633825027 114 79 39 0.82547730186410051 15 6574 17 4925 16 4700 8 3767 10 1954 9 748
5579 -3.2288173696435249 3.9879580139431545 1.1054283180807269 76 64 59 0.49189647358505956 15 4230 17 4915 16 4702 14 3306 8 2714
5581 -1.0782441953925908 5.0563542207879317 4.5397857571385547 174 97 41 0.5245501644802425 17 4923 16 4704 14 3313 13 1737
5583 -3.6054674847482642 4.1276586388034779 0.94313103024860212 34 64 52 0.3104004007270863 15 6577 17 7051 16 4709 14 6646
5584 -3.1633681194962922 3.9777213422800894 0.96715833547696684 192 171 150 0.34045992067721159 15 6573 16 4710 17 7048 14 6647
5585 -4.9755558302045895 4.5020852577200383 0.63616730480265382 146 86 60 0.39746157472523053 15 4217 17 4929 16 4714 14 3318
5586 -0.63892478023628363 5.7111992865938976 5.8515368830648926 214 181 192 0.67504583409778418 15 6604 17 7072 16 4715 14 6668 8 5750 10 4603
5587 -4.9951358591330015 4.5371147124119888 0.582395329916648 68 5 0 0.26660214534699067 15 4211 17 4934 16 4726 14 6669
5588 -5.3108948812504337 4.7630210604813712 0.76672214804166872 118 29 26 0.59224224950531512 15 7451 17 7074 16 4729 14 8372
5589 -1.4082746304249041 4.7030081071813958 3.3405567735857509 49 35 31 0.30595193213202954 17 7078 16 4730 14 6678 15 6608
5590 -0.8180866836768218 5.5361852868991219 5.1808462124171735 17 54 70 0.21452030069466793 15 4189 17 4952 16 4732 14 6382
5591 -2.3232612334041423 4.2587451839821231 1.8772901483079572 102 48 48 0.78369890680343879 15 4204 16 4733 17 4936
5592 -0.9623225768611654 5.1424016866320335 4.3806253526609185 64 33 4 1.2855563167499369 15 6614 17 4947 16 4735 14 6683 8 2746 10 1247
5593 -4.1968235010659543 4.3565267601248339 0.73592856015618335 167 121 88 0.16817820486204976 15 4202 17 4939 16 4737 14 3329
5594 -3.1570148719754147 3.9659336274966122 0.75064648123851707 184 156 129 0.11854293266321952 15 4207 17 7071 16 4738 14 6673
5595 -0.77105917401214985 5.6304740944076173 5.3363784627340163 212 178 177 0.88723908633422088 15 4187 17 4953 16 4739 14 3339 8 3786 10 4609 9 1980
5597 -2.6329749154171798 4.0005592141431556 1.1059031875849221 17 35 59 0.68287392445162731 15 4198 16 4742 17 8589 14 8352
5598 -4.9895493489193079 4.4920213901306338 0.34114729032252045 153 97 61 0.5764073536565496 15 4192 17 4943 16 4744 14 3335
5599 -4.3445167495395856 4.3534195780520184 0.5396919393955204 31 18 5 0.14481107117259254 15 4196 17 4946 16 4746 14 3334
5600 -2.9780193418930883 4.0078902545329322 0.85189667114241385 93 138 139 0.13512745649921318 17 7084 16 4747 14 3337
5603 -2.390763815023575 3.9739897122271235 1.0569645085310013 56 55 59 0.38031403183885687 15 4182 16 4758 14 3345
5604 -4.2655703539257681 4.452946394775247 0.57627960756376262 59 48 42 0.20168447157524921 15 6626 17 3944 16 4759 14 3349
5605 -3.7824944383026344 4.2688417713285221 0.55927190095787049 25 31 17 0.91748565370113333 17 7102 16 4760 15 4176 14 3353 14 8303 15 2627
5606 -3.338618356261343 4.2116209353409406 0.7457814935508158 143 111 85 0.4959547897553887 17 4960 16 4761 14 3355
5607 -4.650580203030545 4.5619142557446253 0.43794152659225888 38 10 0 0.26576013316680869 15 3459 17 6863 16 4762 14 3795
5608 -1.8958549850703321 4.3585988005520582 2.0028446570926164 248 138 89 0.4624678834259292 17 10525 16 4763 15 7385 14 8301
5609 -1.5724064946209633 4.7610801209091802 2.8997342111020936 27 34 47 0.5550239072632176 15 4172 16 4764 17 4963
5610 -5.1454365630717591 4.84387600117355 0.55038410722174225 35 6 0 0.25922739748830598 15 3251 17 4964 16 4765 14 2765
5611 -3.3525269601165082 4.1989642131834124 0.66310519029533088 28 27 6 0.34683253794927776 15 8319 17 7111 16 4766 14 8296
5612 -4.4784314318549416 4.5844933829573291 0.51616234874835376 152 111 89 0.21758170001966892 15 6636 17 4965 16 4770 14 6718
5614 -3.281002609231277 4.1922393462289307 0.59031071213505337 147 119 88 0.91422547145793143 17 7122 16 4774 14 8261
5615 -2.8569641676544859 4.1104165393190977 0.73699603892666965 4 23 32 0.16626400096213048 17 4966 16 4776 15 4169 14 3362
5616 -3.912607890991505 4.4184955396699062 0.52495675471531411 150 105 81 0.068430525045404797 15 4164 17 4968 16 4777 14 3364
5617 -3.6473492442545785 4.3495730832067192 0.54620050595414338 44 30 6 0.50772705104564553 15 4163 17 7133 16 4780 14 6726
5619 -0.93613153526059234 5.5530511477885494 4.3817093882965095 200 155 157 0.60528705967370589 15 6668 17 7160 16 4782
5620 -4.7789915477450959 4.7988925666896973 0.40341971263391657 44 50 38 0.56652659195471289 15 4158 16 4786 17 4975 14 3804
5621 -0.82524899928172446 5.752415556701246 4.689508843077336 169 35 59 1.5408217352329154 15 4153 17 4983 16 4787 14 8221 8 2715 10 1977
5622 -4.7996071065593942 4.8790787674662983 0.51188494535170348 16 17 12 0.31086486433516836 15 4156 17 7157 16 4788 14 3378
5623 -1.0751354200916325 5.3617051294301143 3.8466696702186867 161 71 18 0.89001691656975945 15 4152 17 4981 16 4789 14 3383 8 3828 10 2471
5624 -0.96987661301698758 5.5213549023686266 4.1978761515148904 196 156 151 0.53952891577079121 15 4151 16 4790 17 4982 14 6742
5625 -2.4696688754857825 4.2545521592623787 1.0033896846808301 84 38 38 0.2211926788716071 17 4979 16 4791 14 3382 15 6671
5626 -3.694435859056544 4.4988594964902688 0.52272012835866033 43 55 45 0.43148979891324435 15 6673 17 3560 16 4793 14 3384
5627 -3.8222851668704187 4.5592547407401254 0.52346517987682883 50 57 55 0.2696251465609546 17 7165 16 4795 15 6677 14 6746
5628 -2.4616842547808542 4.2191470310077595 0.8237894890050923 70 30 30 0.32423593173769771 15 6682 17 7170 16 4796 14 6755
5629 -5.4762425240616057 5.4192176147036006 0.53144942884757551 95 36 24 0.48890189314889998 15 4142 17 4995 16 4803
5630 -1.0993832141573616 5.2209840767033295 3.1921997382473557 36 37 21 0.62306258915883672 17 4998 16 4804 8 3844
5631 -1.6516142232182636 4.9130073667632228 2.3665116335312115 36 100 125 0.6098606282604907 17 4996 16 4805 15 6696 14 3389
5632 -1.0081957119819396 5.3673142669096947 3.5127444622234281 143 25 42 0.30663738756533138 15 6702 16 4806 17 7200 14 6771
5634 -4.4756101568425528 4.8488998500046794 0.26053885900460305 57 2 0 0.27398707581592086 15 2736 17 3417 16 4810
5635 -0.58872744777486163 6.3202539364171972 5.2361342790714014 53 51 62 0.35861310151620784 15 6900 17 7212 16 4811 14 3398
5636 -5.7802586442045349 5.6401613413276213 0.55337560012730813 19 8 0 0.63730517992609637 15 4134 17 3493 16 4814 14 3395
5637 -5.6927473093837726 5.8148503837248207 0.91996874151854113 77 12 0 0.59540556120951216 15 2583 17 7206 16 4816 14 2718
5638 -3.8662898619401038 4.8559165187555653 0.54949592944485715 18 22 15 0.66337898915651361 15 4131 17 3948 16 4821 14 4838
5639 -3.5466307960212693 4.5943349133474953 0.33173553126043659 29 23 8 0.23360811071355195 15 3449 17 3877 16 4822 14 3811
5640 -5.6403755095460797 5.7927238229638425 0.72397796896167377 28 5 0 0.62114234311065597 15 4124 17 5004 16 4823
5641 -3.7402888124116198 4.8842965247210142 0.36978438785100426 41 50 47 0.23662440862962672 15 6744 17 3949 16 4839 14 3413
5642 -1.6533347626753141 5.0856473410878236 2.0380835515737439 7 71 98 0.45332548312852977 17 3885 16 4845 14 3815
5643 -1.2441504242462884 5.4398731031798793 2.8014491659152605 147 28 41 0.90911299766352371 17 5965 16 4846 14 3424
5644 -4.3388725175372516 5.2148886185574908 0.27753970246274445 22 36 28 0.652386728720316 15 4107 17 5023 16 4849 14 5873
5645 -1.5132013289078636 5.4651646336340782 2.5997558197463744 24 77 103 0.56558942051185968 15 4104 17 5974 16 4850 14 4917
5646 -1.4215891579040707 5.4664185467923083 2.6848722398630009 26 31 45 1.4961698705935573 15 4103 17 5021 16 4851 14 4918
5647 -1.1717346859397619 5.1367376081918268 2.279790664642785 164 32 49 0.76482756920043715 15 4098 17 5026 16 4856 14 3427 8 2059
5648 -1.5282525997267469 5.1384724132223374 2.0036348130449921 31 93 118 0.32050033924594862 15 4093 17 5980 16 4858
5649 -5.1302009305402869 5.8483298030978252 0.5231125299972742 13 2 0 0.8972286499250075 15 4086 17 5035 16 4861 14 3430
5650 -2.0004629963947931 4.5692581641045109 0.83736938163451169 205 148 108 0.30427901827241677 15 3290 17 5025 16 4862
5651 -3.5633549233359179 4.8664116553705909 0.16293247640513314 46 57 49 0.34955477433556986 15 4095 17 5029 16 4863 14 3432
5652 -5.7498450852448117 6.294405017624694 0.68261764426992788 115 50 29 0.42633433179809616 17 5045 16 4868 14 3437
5653 -1.4116205602389953 5.2974214635216059 2.2269796962302362 12 24 34 0.77954513051322072 15 4083 16 4870 17 5041 14 3439
5654 -3.4426857703469711 4.8050084104825217 0.10567874771492455 7 19 15 0.51867363941732203 15 3437 17 5033 16 4872 14 3820
5655 -1.950018229201492 4.6351620070383444 0.85346166926136258 207 175 158 0.11934692242381273 15 4079 16 4873 17 5036 14 3875
5656 -1.4584392589989368 5.3599306907281008 2.1614793843097413 27 31 42 0.60491458899613526 15 4070 17 5050 16 4879
5657 -2.1712514346916283 4.8042351219171948 0.85498762749631618 189 144 110 0.49386483203327369 15 4073 17 6000 16 4882 14 4955
5658 -1.9785550971860311 4.6638790203297251 0.79828123083978209 190 156 131 0.13251485950979477 15 6784 17 6315 16 4883 14 3877
5659 -4.9545649442998876 5.8480181985371082 0.38184414688808055 133 86 61 0.39527656423840712 15 6792 17 6010 16 4884 14 4962
5660 -4.3241383038546184 5.4998694722439945 0.311734290901232 106 92 75 0.34331032266745509 15 4067 17 3895 16 4886 14 3452
5661 -2.1716342871174654 4.6192289099970916 0.55777640924243188 232 150 89 0.30261558343036521 15 4071 17 5047 16 4888 14 3450
5662 -3.6568380878034095 5.1514135157063388 0.24085341160422558 20 23 16 0.30335724113106727 15 4064 17 5052 16 4891 14 3454
5663 -1.8575966376464881 4.9215973415862555 1.1573287614528189 38 113 136 0.37849415089817395 15 6793 17 5053 16 4892 14 4976
5665 -4.2136206872252746 5.4491644887970399 0.2010548077632926 21 15 11 0.63191139755161285 15 4055 17 5060 16 4896 14 3460
5666 -2.0437092285670282 4.7099181107262078 0.68155797467902768 198 177 164 0.25353929515176687 15 4057 17 5055 16 4897 14 3459
5667 -3.9745280344029035 5.4656521908441471 0.33751113775321073 35 45 41 0.55996382013567192 15 3975 16 4901 17 5066 14 2547
5669 -2.150375706895173 3.344789186241603 17.233835906599143 133 93 67 0.66737123205936211 7 2527 11 2687 12 2735 16 4924 8 3298 10 4335
5670 -3.2712473114851535 4.0336093723819744 3.5065792568980911 217 170 134 0.38488122219874676 15 3499 17 6326 16 4926 8 3069
5671 -2.1855223690526904 4.5720149554443577 0.8316398386163294 151 41 1 0.19091467275502189 17 6899 16 4932 15 10091 14 4908
5672 3.3301694060832792 -3.6906782625287771 18.288246701025276 59 32 3 0.79279706427787788 7 2635 16 4964 5 2538 2 3247 3 3003
5673 -9.9036723334753667 -0.75945761419930713 16.876215447318973 108 85 54 0.36531303262046938 4 1644 16 5049 8 5482
5675 0.51029225626238561 1.2117685488999603 18.015916882328085 73 39 13 0.75318804870611122 4 3717 16 5102 14 6604 13 4937 2 2766
5677 -6.9213297694418445 1.9503052941629977 16.661290430217374 172 129 75 0.68302134442828555 7 1684 12 977 16 5109 10 2967 1 1731
5678 -9.757425680965083 3.537418395133948 16.780975403676237 209 158 109 2.5498908371132876 7 1722 17 3763 16 5127 6 1335 8 3285 10 2910 1 2018 15 4605
5679 -2.4376126925415589 -0.016545469829960843 17.553938424330333 96 72 60 0.68491888736968687 11 3862 15 8960 17 5479 16 5137 7 5034 12 5167 14 10109 8 4409 5 2642 3 2471
5680 -3.2867139822449865 3.8582321050804151 1.2751342848756597 90 36 14 1.5448279517437065 15 5095 17 9692 16 5139 14 6359 8 2027 10 755 13 3669
5681 1.4612155831954867 0.034279881835764518 18.794342676635761 33 28 2 0.46270274815701418 6 4212 16 5158 10 5946 3 3043
5683 -10.991361283418549 1.0977583950666812 16.639714359740015 181 148 113 1.101790928350834 7 3313 15 8841 16 5236 6 3602 12 2304 10 4634 1 3000
5684 -9.849133251473118 1.3511803490296865 16.639074528934351 221 181 137 0.80901395744022386 6 3611 16 5257 12 2616
5686 -12.715651350325992 1.5064937326865069 16.623200589640017 168 131 94 1.1375694454080763 4 3728 7 2252 12 1722 16 5261 14 4736 8 6373 9 2401 1 2501
5689 -5.2614085646730722 1.3260550788366703 16.613076015248467 157 124 89 2.018027023385057 4 2535 15 9873 17 3926 16 5278 17 10671 10 3429
5690 -4.585955706285473 4.1124457432216452 2.090117029822296 76 87 70 0.20752481964603633 17 6879 16 5317 14 8663
5691 -1.8810457201795723 4.4709188651655527 3.5463643709366774 160 57 55 0.23235111186770155 15 6513 17 8732 16 5321 14 3269
5692 -3.8530121009651794 3.9359537543074263 2.1753294748534362 65 51 25 0.96046761566952499 15 6408 17 6880 16 5341 14 5226 8 1989 10 1259
5693 -1.4666851803838572 2.1638631185595965 17.583094255481843 47 38 20 1.7115557908141532 12 4254 16 5353 13 4916 5 3533 3 4461
5694 -2.68995253440605 3.6740637107821863 1.3992955863125689 123 152 145 1.0071105230552682 15 9689 17 8750 16 5354
5695 -3.5947388402949092 3.9638217014737487 1.3656800810632452 89 48 13 0.20573674110493886 15 9690 17 9689 16 5371 14 9332
5696 -4.4869125648839931 2.6735265825277694 17.049286280069442 136 93 56 0.48563057634011031 4 3170 17 5744 16 5372 15 8660
5698 -8.7308362722063872 3.0320252321856609 16.550456405625759 216 175 127 0.94809077030799316 6 5532 7 3930 12 4021 17 7369 16 5376 14 5231 10 5088
5700 -4.1907360933688418 3.977867027452783 1.1321121123271649 72 70 44 0.31812165694252459 15 7644 17 8760 16 5436 14 6563
5701 -11.162638599359873 4.2152062488358579 16.675690695499817 65 31 15 1.981107491170583 4 2387 17 5835 14 4398 16 4306 10 3602
5702 -2.085446487846891 3.5340283544842186 17.545055690690031 184 142 117 0.87733154154451243 7 2319 11 2290 12 2327 15 8546 16 5455 8 4959 10 5603 3 2048
5704 -2.1613655592890182 3.9452045954821466 2.5735536491849467 24 43 64 0.41840021833938135 15 6482 17 8780 16 5492 14 6553
5706 -2.2478724925835327 3.8474593022273331 3.0091675500531765 71 142 143 1.4836092711535913 17 8852 16 5550 14 6494
5707 -2.1290752343526069 4.5042931429339275 2.9436363792292424 105 16 16 1.1702107765058258 15 6548 16 5571 17 8661 14 8418 14 8427
5708 -4.6102747840421809 4.1344638585456446 1.9893056899535051 155 175 161 0.45591448939765344 17 6421 16 5577 14 6496
5709 -4.339229903609918 4.0720021877400052 2.0281241104073109 129 174 171 0.53314641352879633 17 6816 16 5581 14 6498
5710 -10.147963645028536 -2.8876999019258269 17.132584802488143 82 51 23 0.68954488604338404 4 3463 12 2132 16 5595
5711 -0.70581154792209855 5.4050809989117479 5.645064798254813 2 67 91 0.23587582106309521 17 7033 16 5612 14 6622
5713 -1.0914563135261102 5.7342799598427208 17.745929505423362 37 16 7 0.37253786187055221 12 2664 16 5644
5714 -0.62405862535310686 5.6784720591350064 6.2698811911836669 26 55 70 1.4307432313469337 15 6556 17 7032 16 5653 9 4153
5715 -1.5956532172244304 5.9317755785200452 17.709816120040323 125 72 63 0.80378497543222638 11 4458 15 5238 16 5664 14 5699
5716 -3.5491993261540546 3.9796937764039377 1.0275979803575535 186 177 151 0.12958874555755617 15 7547 17 8694 16 5714 14 9346
5717 -5.0984021628432474 -1.3359873137238563 16.593897322836032 141 97 52 1.1590056846593968 11 3212 16 5741 7 3085 12 3169
5719 -1.1617680523821352 4.8047596350997495 4.2604822432732394 157 113 87 1.1798747276376353 15 7530 17 8672 16 5744 14 8437 8 5859 10 4231 9 2722
5720 -2.2207863456323302 4.0049513306466009 2.001700481203617 80 79 87 0.42246240337305602 15 6539 17 8690 16 5754 14 8446
5726 -3.9175900073505794 3.9197342228734477 1.4840334384291254 175 190 171 0.19251247530857524 15 7691 17 8798 16 5784 14 5954
5734 -5.1215991733537383 5.2399632203941193 0.66063969075803464 65 46 39 0.48058526691327835 15 10226 17 7182 16 5799
5737 -1.063136905005031 5.367203037455706 3.7047748606739423 49 32 16 0.61934374993640806 15 6686 17 7183 16 5804 14 6757 8 5937
5746 -3.383046194685801 3.8735193229705982 1.9746093098829167 100 97 70 0.21313631004311215 15 6440 17 6942 16 5819 14 5009 8 2902
5749 -2.566784735747945 4.0662372041578339 1.4230639712998507 7 20 37 0.36160731726819606 15 6597 17 7066 16 5826 14 6663
5752 -4.1651439975746039 4.0905580146203837 0.84609770671609275 59 80 71 0.16244317934415395 15 7553 17 7011 16 5830 14 8458
5757 -0.44186661829875656 5.7877790713072068 6.7274952884693553 29 68 78 0.86368401335750433 15 6545 17 7025 16 5842 14 6613 10 7580
5761 -3.0371741192147099 3.8965946725710849 1.3407367987023484 214 197 187 0.62270540597607449 15 6527 16 5862 17 10410
5767 -1.9134624393308035 4.1545978338747416 6.1739727356606533 113 81 58 0.55436994111005466 15 6298 17 9042 16 5880 14 5077 8 3588 10 2369 9 1320 13 1660
5768 -2.84415840863916 4.0339041304151371 2.8367167034026588 78 72 62 1.0125449644745368 15 6425 17 6933 16 5882 14 6506 8 3726 10 3142
5769 -1.9422416513688741 4.2512070994968179 6.1137018114758872 255 192 169 0.23830535221135787 15 6315 17 6269 16 5890 14 5891
5770 -3.6347154043590266 3.9723411751260609 1.1005835049645956 131 148 130 0.2278041459109324 15 9536 17 8716 16 5893 14 8477
5771 -5.606527857486463 4.1756371505009824 3.3225098301273706 54 68 38 1.1959101187493353 17 6276 16 5894 14 5893 8 3646 13 4328
5772 -4.2720279674124511 4.0657539068179975 0.83171564351671845 49 63 39 0.58141587201239431 15 7570 17 7001 16 5896 14 8474
5775 -4.846423284465958 4.1440963548324277 1.6972911723121973 140 164 166 0.34216631598511738 15 6424 17 6935 16 5905 14 6505
5776 -5.047628497531564 4.1402485392106287 3.4028490815636245 129 59 34 0.35808555402513448 15 6325 17 9000 16 5907 14 7501
5777 -4.1984103871877423 4.0464967227151822 1.6563239416582649 86 72 56 0.25958906891044686 15 5252 17 8801 16 5908 14 8593
5779 -6.0799946422390843 4.2331696906245826 2.8906856373029943 148 158 123 0.50049602567573492 15 6326 17 9001 16 5911 14 7500
5780 -1.4250819605514498 -3.8670440600508487 18.305789996680577 67 39 12 0.86815032764057931 11 5393 17 6119 16 5919 6 4427 14 5210 2 2903 5 3297
5781 -4.7499923686417613 4.1950989038865876 3.5536628751278525 220 117 89 0.14617418598776169 15 7940 17 8974 16 5927 14 7521
5782 -4.1144763434438785 4.1725944994142399 3.9294755184518055 165 67 13 0.14757108877957292 15 7935 17 8973 16 5928 14 7522
5783 -4.3700218706551786 4.1290890252337 3.568373529270267 210 178 138 0.2893316761405102 15 6335 17 6296 16 5935 14 7531
5784 -5.3472361565138264 4.0212980235428928 2.535667602853108 106 70 45 0.2244482260428092 15 5057 17 6299 16 5940 14 6310
5785 -2.4397435806211814 4.3671602469335058 5.3694321279892447 209 195 179 1.5910534988933742 15 7911 17 6305 16 5944 8 6816
5786 -5.2359027143601873 4.1239871805467363 2.7517564440553635 205 171 136 0.21745424668955673 15 6343 17 8119 16 5949 14 7544
5787 -4.8041336752237012 4.0871643582600115 2.9542418968732944 211 181 153 0.84984532851143491 17 6306 16 5952 14 5926 8 2619
5788 -4.7355919395638901 4.132198189568542 3.081575376904206 84 55 25 0.50677426745832166 15 7903 17 8949 16 5954
5789 -4.5254591991589113 4.0001115225177255 2.8051509093628266 218 174 135 1.6691866195718466 17 6423 16 5965 14 7560 8 1966 10 562
5790 -2.5562917798570086 4.2789738092585097 4.7732180076872766 205 198 188 0.5128919386968821 17 6317 16 5968 14 6307
5791 -3.4070811217141896 4.1433363352813606 3.8318831258502009 108 37 7 0.35312064131354215 15 7881 17 6320 16 5971 14 6406
5792 -1.0854254222192676 4.8197355873040308 4.5016380256748594 177 126 72 1.5040818228292849 15 7559 17 8700 16 5973 14 5950 10 3149 9 1982
5793 -4.3961672652741628 4.0340530747442358 2.8871936123875912 150 60 31 1.4404736423403106 17 8932 16 5975 10 724
5794 -0.96443866467306083 4.8450553170005124 5.2013827159806807 37 45 54 0.59140668086499215 15 6492 17 4874 16 5976 14 3252 9 1791
5795 -4.3203736382202838 4.0241358488918975 1.7351448799165068 137 171 160 0.21508729181550193 15 7740 17 6938 16 5979
5796 -2.54055443786201 4.0735021520628099 4.1145210638079375 60 62 57 0.51569409209852624 15 6367 17 6327 16 5983 14 4639 8 3667
5797 -4.9434491870304971 4.0025186831150519 2.3141186018398239 212 170 132 0.88431252548353445 15 6365 17 6322 16 5984 14 6455
5798 -4.2453199914908346 4.2127439352469267 3.279233581675248 168 50 28 0.4209861009689424 15 6366 17 6329 16 5986 14 4638
5799 -4.3381225635709679 4.1183816572552079 2.9592074085711055 72 66 37 0.16272167835290055 15 6369 17 6800 16 5988 14 6320
5800 -2.9665428325568968 4.0839197818269648 2.7929174639388332 104 64 56 0.24651872862931901 15 6432 17 8822 16 5991 14 6512
5801 -3.727433690710678 4.8909543085763714 5.1632313135897885 83 66 72 1.1706062545388343 15 7855 17 8914 16 5994
5802 -1.518155681395454 4.0184712177680364 4.331050902967073 51 40 41 0.38578585014227812 15 7833 17 8898 16 6008
5803 -3.0532706266747378 3.9318599740987277 1.4816314032989055 200 181 163 0.60375855241524734 15 7582 17 6995 16 6039 14 8491
5804 -4.8705175237929952 4.784739038067003 0.4449917157762624 41 13 5 0.59182575398317971 15 6650 17 7140 16 6062 14 3365
5807 -3.7264862050484564 3.9646975678809167 1.1301011512874153 41 55 40 0.62952042636130001 15 6517 16 6104 17 8731 14 6586 8 2733
5809 -6.2871730593438011 -0.22486483228476029 17.499877950408738 65 47 32 1.6668224773557367 6 1887 7 1997 12 1644 16 6121 10 2694 13 2107
5810 -1.1604647103264907 4.8332129348836075 4.5621352767483243 71 36 17 0.48145320053700114 15 6528 17 7008 16 6126 8 3751
5811 -10.533128551448023 -0.13929390079178888 16.687068088569362 92 68 40 0.57346244745120156 6 2772 11 2237 12 2502 16 6132
5812 -6.0598396997942174 0.06405029068591464 16.447354265059484 62 48 35 1.413777614438043 4 2599 12 1662 16 6148 7 1692 11 1653 1 1767
5813 -3.9724506129080326 4.071332223753144 0.67969827250785031 18 37 27 0.25238477957930194 17 8650 16 6153 14 9356
5815 -1.285748448459098 4.7655403620068943 3.7557489663122676 138 122 95 1.1790691074331738 15 6580 17 7053 16 6159 14 6654 8 2753 10 3104
5816 -1.1710135360238187 4.8939324740577694 4.0616081373097828 47 20 0 1.4824196828479901 15 4214 17 8628 16 6160 14 8391 8 1605
5817 -3.5617255942591117 4.1452020424839189 1.0435891588711086 22 62 53 0.78242757776666194 15 4222 17 4920 16 6164 14 6642
5818 -4.0738751295221123 4.126360247405402 0.60556795494182591 35 31 10 0.15947920060204135 15 6576 17 9714 16 6166 14 6652
5819 -3.2500965967608408 3.9699327135529652 0.87922123053466983 111 136 129 0.18259148197314654 15 6578 17 8635 16 6167 14 6653
5820 -4.4294080811367422 3.9776180447205518 0.072478899993287549 78 2 4 0.76897067289706689 15 3253 16 6168 17 4922
5821 -0.68293253513606234 5.4991782681919137 5.3618923967479457 28 48 62 0.35985486617323342 15 6609 17 10491 16 6171
5822 -0.50718861032447937 5.8386903116038251 6.122049344275867 169 35 62 0.91328806207530067 15 4201 17 4941 16 6172 14 3872 8 3768 10 4207
5823 -3.0324065476794639 4.076195437630636 1.1634455811700577 100 150 156 0.4067783922946413 17 8619 16 6174 14 6659 15 6586
5824 -2.6532136388071259 4.0743144532154876 1.4184050736522424 21 45 73 0.29231309727280547 15 6593 17 7058 16 6176
5825 -4.0308449579912775 4.1108181820942677 0.51324048581305748 144 119 88 0.46390877603184466 15 6594 16 6177 17 7064 14 6661
5826 -3.2645707135571476 4.0268455993254193 0.87966754678646797 53 38 21 0.50501759574654081 15 6595 17 8620 16 6181 14 6662
5827 -4.2611369149212672 4.3399320906418826 0.71705819542067983 40 6 0 0.3671384365220885 15 10166 17 7068 16 6183
5828 -5.1070537659255182 4.6997480604903936 0.73508539279393093 114 75 59 0.37019579494945709 15 6610 17 5597 16 6188 14 6677
5830 -4.5951693610597006 4.4850383214967362 0.63230313166745189 157 73 63 0.47938965045324844 15 7435 17 7083 16 6195
5831 -5.3603064504081459 4.7815952010973923 0.59250729593535567 97 26 0 0.25498861547230811 15 6617 17 7091 16 6196 14 6689
5832 -5.1437855432067705 4.7324240095069472 0.62166265691436262 91 33 39 0.18153588073194168 15 7425 17 8573 16 6198
5833 -3.1086875885964664 3.8625673468904291 0.48964880264840593 38 23 5 0.48122082604177807 15 4195 16 6199 14 6686
5834 -2.9722844879251658 3.9729583482041999 0.74286713844935492 39 79 73 0.17377966322491784 15 6618 17 7090 16 6201 14 6695
5835 -4.1994764948014973 4.4493995094420624 0.7283756576886895 150 106 81 0.14054183885290081 15 7424 17 8566 16 6202 14 8327
5836 -4.4196426229429022 4.4288341857363962 0.53302604709935597 167 112 95 0.23120205742822331 15 6887 17 7092 16 6203 14 6696
5837 -1.0650072763591902 5.1259665893585762 4.0416714912220888 130 64 5 1.2947922542745567 15 7399 16 6205 17 8549 9 2425
5838 -1.2363399050171155 5.0659263694208247 3.814824534085842 136 114 83 0.35811918699927164 15 6627 17 7104 16 6206 14 5946
5839 -5.6468352403062658 4.984245589713387 0.5999588219450227 106 48 26 0.36817037847349099 15 6624 17 7101 16 6207 14 6705
5840 -4.834368959089101 4.7205474385845632 0.67814452714607665 87 44 32 0.46547211911516762 15 7401 17 7099 16 6210 14 8313
5841 -1.4554249005165494 4.742099169874832 3.0441350707611301 43 100 123 0.34549159046741756 15 6629 17 7108 16 6211 14 6709
5842 -4.917596594292208 5.687301909143315 0.10685461442001826 51 6 0 0.16241450234721644 17 6017 15 6799 14 4975
5843 -0.88012184289554485 5.6182028244181526 4.8847091004345762 201 148 138 1.6508115975977073 17 7125 16 6215 15 10334 14 8282 15 10321 10 6466 8 6549 9 4239
5844 -0.95391555154256991 5.4715011562667799 4.4991876841785645 144 101 52 1.9046833204020461 17 7126 16 6216 15 10305 10 3232 8 5760
5845 -3.9166734313463403 4.3077438638152463 0.49445226009543836 138 103 73 0.27663788875113748 15 6631 17 7107 16 6219 14 6711
5846 -3.3434287238990539 4.1201600950923334 0.56340989295121013 38 39 28 0.15728938205258766 15 6630 17 7105 16 6221
5847 -1.1788017630911303 5.1717796962491924 3.8544764874760657 47 15 0 0.4217961920480553 15 6639 17 7127 16 6223 14 8284
5848 -0.88162138380272204 5.6094676935271659 4.7271108141693343 222 170 166 0.72929480339312414 17 7138 16 6227 14 10286 10 4259
5849 -1.5328537402906295 5.1509534401789088 3.5122862941227728 2 51 76 1.913177645900199 17 8521 16 6231 15 10314
5850 -5.7836005280854517 5.1813589147531935 0.54215497126512635 32 33 19 0.31860212641465002 15 6647 17 8514 16 6236 14 6723
5852 -0.9499106486236284 -4.1666110717771412 20.536996423411829 145 112 79 1.2266440297991594 12 7026 16 6240 3 5770
5853 2.7581327451376234 -4.0236365198052626 18.706318564699629 164 135 102 0.36778818456070689 7 4712 15 5387 17 6040 16 6287 14 5123 5 6060 3 5788
5854 -5.4960762164883175 -5.5003402080058033 18.051819649041697 60 27 1 0.40611366657724024 4 5994 16 6334 14 7796
5855 -4.5413048343292077 5.5232349113417323 0.19369716117086563 11 6 4 0.59552114225354957 17 8294 16 6401 14 7980
5856 -1.9271834121411251 4.4807465490130918 0.90226067871148985 221 189 164 0.97514065384944837 15 6754 17 6898 16 6404
5857 -2.2743839486890454 4.3484584787562586 0.63153459850842608 180 38 41 0.26870478661058433 17 8383 16 6405 15 10129
5858 -0.38555266734442267 6.2204584138700225 6.7715844827687812 146 39 57 1.175150766922987 15 7709 17 8576 16 6410 14 8350 8 3772 10 4198 9 3191
5859 -0.672651212580896 5.6564096079320914 5.8027015841033487 44 75 87 0.26754825289754763 15 7462 17 8608 16 6411 14 8377
5860 -2.0265144655131655 4.4534639326824967 2.9027274612444587 178 51 58 0.40153834951736972 15 6550 16 6413 17 7026
5861 -2.0258206067171445 4.548194278556692 3.4887932904757482 103 23 22 0.39986084529636712 17 6997 16 6414 15 6520 14 3279
5862 -2.9697307230440417 4.0576509299965711 4.0531994352013445 111 139 132 0.094257572436181492 15 6349 17 6311 16 6423
5864 -11.393069454047604 -4.6282452709241833 17.099211797596865 174 130 80 0.32950309195623134 7 3369 16 6497 14 6034
5865 -3.3304156907165341 4.2137385502229474 0.56908030616280092 31 12 0 0.20492543834667842 15 6645 17 7128 16 6515 14 6725
5866 -3.3137858830857119 4.0713590152779684 0.33488170101448611 53 32 3 0.24370528694231064 15 10320 16 6577 14 8269
5867 -2.3095520852261493 -0.55103753001204403 17.603216213082831 183 152 124 0.74846406972741542 7 8293 16 6587 8 5490 5 2282 3 2438
5869 -1.0827488445506144 5.3368873360411468 3.9360239859264694 115 31 3 1.7576004927390139 17 7153 16 6622 10 4278 8 5917
5870 0.48552360405988881 1.4606514926579248 19.98069758249596 137 135 114 1.6474647102345377 12 6346 15 4933 16 6643 14 6172 10 5974
5871 -3.8463987935730075 2.1136781009305272 17.374910060715866 95 60 31 0.97297469812351478 4 3164 16 6653 10 7961
5873 -4.2480797945014546 4.9262359216132214 1.1025143700134297 26 29 20 0.73439957933512401 17 7146 16 6674 14 8253
5874 -11.022076335049174 4.5095089026369441 16.50820046390227 58 24 7 0.69633112334730285 7 3221 16 6682 11 5923 12 3287 6 8431
5875 -0.53965173658561549 3.5514905250353106 17.172293085043062 83 64 50 1.4944964518115831 4 5450 16 6691 1 2559 5 1186
5885 -4.3381225635709679 4.1183816572552079 2.9592074085711055 72 66 37 0.16272167835290055 15 5064 17 6328 16 6780 14 6460
5886 -1.0362714822582517 5.6819679566740691 4.5226366684136377 50 28 7 1.5591914413763368 17 7159 16 6790 15 6667 14 6739 10 2999
5887 -3.935669084805014 4.0262822440773327 2.310668891978378 65 51 25 0.3818143588257476 15 5075 17 6815 16 6793 14 6702
5888 -4.326940336610261 4.0608957906464953 2.0127541253800971 129 174 171 0.45980295596235138 15 6418 17 6923 16 6795 14 6332
5889 -4.326940336610261 4.0608957906464953 2.0127541253800971 129 174 171 0.45980295596235138 15 5078 17 6817 16 6796 14 6331
5890 -4.1888895466317688 4.0378175028136845 1.645361595412036 86 72 56 0.26002008209282762 15 6909 17 9679 16 6806
5891 -3.5947388402949092 3.9638217014737487 1.3656800810632452 89 48 13 0.20573674110493886 15 7628 17 8748 16 6814 14 8514
5892 -3.2867139822449865 3.8582321050804151 1.2751342848756597 90 36 14 1.5448279517437065 15 6514 16 6821 17 8739 14 6585 8 1601 10 884 13 3670
5893 -3.5491993261540546 3.9796937764039377 1.0275979803575535 186 177 151 0.12958874555755617 15 9704 17 9698 16 6824 14 8450
5894 -4.7763494274283058 4.8796853020920823 0.57006770937097007 81 26 23 0.55533066016849053 15 10267 17 4974 16 6826
5896 -4.0738751295221123 4.126360247405402 0.60556795494182591 35 31 10 0.15947920060204135 15 5109 17 8636 16 6831 14 6374
5897 -1.0501090000409272 5.0418052450154764 3.9117043017837374 130 64 5 0.66003293961935672 15 9746 17 9739 16 6834
5898 -4.2035427037120101 4.640530115140562 0.54084660882751034 28 37 32 0.19951858811550943 15 6661 17 7154 16 6837 14 6732
5899 -5.7836005280854517 5.1813589147531935 0.54215497126512635 32 33 19 0.31860212641465002 15 5127 17 9746 16 6839 14 6391
5900 -2.5966772574537269 4.1478246378234989 0.99193626201308116 55 57 62 0.17671715843734861 15 6640 17 8528 16 6841
5901 -2.43733091220389 3.8969773149044387 0.60454726734317998 11 15 18 0.49953029830851975 17 6414 16 6843 15 9757
5902 -6.3346968042476188 5.8356307262976879 0.89215791906271136 63 42 25 0.65806017363728042 15 9775 17 9764 16 6848
5903 -1.0585995399276302 5.5261446091492754 3.9716323476034301 187 155 145 0.3884851043526078 17 3562 16 6849 14 6758
5904 -3.7082094701873332 4.6120980370825828 0.52575832823725699 57 67 55 0.53264288927463721 15 10220 17 10605 16 6850 14 6400
5905 -5.0673576197190719 5.3745744110536098 0.62667280833227224 88 92 77 0.26151752428687175 15 10183 17 8421 16 6851
5908 -1.2070012457235972 5.5351396365671164 3.4408153403633217 179 143 137 0.37636818618539913 17 6890 16 6856 15 5146 14 9435
5909 -5.2735116142954217 5.639375685983695 0.47899682386945647 133 102 77 0.40338651630104067 15 5152 17 9784 16 6863
5910 -1.9772704522351627 4.6129741329023792 0.90957176520590644 152 110 85 0.13524032231480898 15 10059 17 6904 16 6875
5912 -1.6035787345457901 4.8643421116207168 1.4471980434962575 31 95 122 0.44482297311173263 15 6777 17 5989 16 6878
5913 -1.7475290152633882 4.8023364564288151 1.0971016556201525 33 102 127 0.22189791443566564 15 10008 16 6886 14 6435
5916 -6.1984336150414387 5.7226578412067548 0.78831824386544025 63 42 25 0.75769916706092877 15 10239 17 8453 16 6897 14 9412
5917 -4.761022074878813 4.9192426734285757 0.47749855385386714 35 42 41 0.20274738535887635 15 6676 17 7167 16 6898 14 6745
5918 -3.9867424501867852 4.6291582236964688 0.53589416253805955 100 84 76 0.15280564827935003 15 10249 17 8465 16 6900
5920 -0.53294813830426746 6.4184707574544637 5.7298803792271515 131 126 132 0.31083997892401966 17 6886 16 6906 15 10215
5922 -3.7082094701873332 4.6120980370825828 0.52575832823725699 57 67 55 0.53264288927463721 15 9781 17 10280 16 6918 14 6761
5923 -1.2058181738087121 5.6482861930781203 3.8624203749475727 55 37 25 0.79979279584970431 17 8428 16 6919 8 3840
5924 -1.0397963132771786 5.2764753793187751 3.3477311346360654 182 124 120 1.3610759105659476 15 6701 16 6921 17 7202 14 6769
5925 -6.7517541215249013 6.1502642172335316 0.75498394340996811 89 71 52 0.63912234392482414 15 10192 17 7204 16 6922 14 8165
5926 -2.7379155026754498 4.3027565849856177 0.57986823690299594 33 31 36 0.046313760275533328 15 10202 17 8433 16 6923
5927 -1.1233496837640664 5.6124106507784486 3.7263410810207822 120 17 27 0.22987859981710748 17 7208 16 6926 15 6710
5928 -3.9364207193259952 4.3587355360968472 -0.17957729399009828 137 73 63 1.5648803104518323 17 10614 16 6928 15 10213 15 10195
5930 -5.6416436390296241 5.7334188988496466 0.73422581838626666 49 22 15 0.54314325275672459 15 9939 17 7213 16 6931 14 8147
5931 -5.0586565546949585 5.3096712910220498 0.48077237980962106 61 1 1 0.48242112373197671 15 6709 16 6932 17 7209 14 6405
5935 -1.2154361004056087 5.5116691334380237 3.3088536562653941 185 144 143 0.35251018597703571 15 3348 17 6277 16 6942 14 4860
5936 -3.5556615236769562 4.6685163124464504 0.31472861518859463 25 22 7 0.5209230530319372 15 6891 17 7225 16 6945 15 9803 14 8120
5937 -3.5245058702999543 4.7661333170605449 0.48725878265741457 37 22 1 0.44275591363837324 15 6721 17 8390 16 6946 14 4869
5938 -2.1766988920680954 4.1915976117384828 0.53978294002093807 181 30 39 0.17751156155500625 15 6719 17 7219 16 6947
5939 -1.8931420003428174 4.4517286920146315 1.0615602550133438 218 181 143 0.40764734684068021 15 6733 16 6956 14 5940
5940 -5.2735116142954217 5.639375685983695 0.47899682386945647 133 102 77 0.40338651630104067 15 6743 17 8364 16 6958
5941 -6.0355375937270734 5.9721315536552355 0.41590519876349352 110 77 48 0.43809077687651299 17 8356 16 6961 15 10106 14 8083
5942 -1.6438596353808062 5.0741535906946629 2.0914978233188468 34 99 124 0.35793822543575277 17 8360 16 6964 14 8079
5943 -2.3656051216678198 4.4340956530298268 0.62493698774443296 126 2 6 0.2979676040954885 15 6740 17 8374 16 6968 14 8086
5944 -0.83666048990972086 6.0878331146693849 4.1202889989923257 46 44 52 0.41576289765267965 15 6756 17 5966 16 6971 14 4903
5945 -1.9266771350953085 4.5782920749213405 1.1313598665965647 198 164 136 0.41521009667386133 15 10108 16 6973 14 4889 17 7238
5946 -1.7309690555396917 5.0591402960283531 1.9697132043079353 5 71 97 0.41858606156161027 15 4110 17 5015 16 6974 14 3418
5948 -1.4894579765367741 5.51678425335969 2.8020653110922273 30 86 107 0.63845441420588644 17 6289 16 6976 15 10090
5949 -1.8149377375424836 4.8981566497526483 1.6532858540510762 9 75 105 0.51983012551469987 15 6747 17 5014 16 6977
5951 -5.8145059630260709 6.0362649312951815 0.50259905873308597 109 75 56 0.80551860780129902 15 10080 17 5971 16 6981 14 8058
5952 -5.7038305663596542 5.9644704227563459 0.48399279563390935 54 29 14 0.41439140008449327 15 6760 17 5972 16 6982 14 4904
5953 -6.1292489324871413 6.2638488769927507 0.61044212797678976 116 75 42 1.3792409474449832 15 4108 17 5977 16 6986 14 7579
5954 -2.3190618317302345 4.4416281912424687 0.58094457079605666 183 40 40 0.17694425642054534 17 7243 16 6987 15 6751 14 8066
5955 -1.816137294715237 4.702469406243253 1.2680148988996327 28 93 125 0.319271823183157 17 5964 16 6992 15 5260
